# .PCD v0.7 - Point Cloud Data file format
VERSION 0.7
FIELDS x y z
SIZE 4 4 4
TYPE F F F
COUNT 1 1 1
WIDTH 629
HEIGHT 1
VIEWPOINT 0 0 0 1 0 0 0
POINTS 629
DATA ascii
-1.194741845130920410e+00 6.509284377098083496e-01 1.782214164733886719e+01
-3.812068700790405273e+00 8.452478647232055664e-01 1.895807075500488281e+01
-3.170509338378906250e+00 1.012993574142456055e+00 2.035972976684570312e+01
-1.187399029731750488e+00 9.640043377876281738e-01 1.776026535034179688e+01
-3.794456243515014648e+00 1.183441758155822754e+00 1.889036560058593750e+01
-3.169956922531127930e+00 1.379542469978332520e+00 2.038086700439453125e+01
-1.177385091781616211e+00 1.270674586296081543e+00 1.765320777893066406e+01
-3.841532230377197266e+00 1.546137809753417969e+00 1.914323425292968750e+01
-2.250001430511474609e+00 1.721107721328735352e+00 2.033160209655761719e+01
-1.255724549293518066e+00 1.693553686141967773e+00 1.887863922119140625e+01
-3.599690437316894531e+00 1.774311423301696777e+00 1.795700454711914062e+01
-1.880601644515991211e+00 1.743882179260253906e+00 1.702186775207519531e+01
-1.610014319419860840e+00 1.755123972892761230e+00 1.459696865081787109e+01
-1.412069082260131836e+00 1.769827246665954590e+00 1.282365989685058594e+01
-1.776824355125427246e+00 1.806466460227966309e+00 1.149606609344482422e+01
-1.599064350128173828e+00 1.812721014022827148e+00 1.035973358154296875e+01
-1.462908625602722168e+00 1.829463243484497070e+00 9.489153861999511719e+00
-1.341678977012634277e+00 1.835073113441467285e+00 8.714381217956542969e+00
-1.597936272621154785e+00 1.852443456649780273e+00 8.035860061645507812e+00
-1.484727978706359863e+00 1.856565237045288086e+00 7.475097656250000000e+00
-1.388719916343688965e+00 1.863242506980895996e+00 7.000368118286132812e+00
-1.393943977355957031e+01 -2.575258612632751465e-01 7.028457641601562500e+01
-5.283297538757324219e+00 4.782386422157287598e-01 3.455718612670898438e+01
-3.667303323745727539e+00 6.529120206832885742e-01 3.390599822998046875e+01
-5.830667972564697266e+00 6.499415040016174316e-01 2.391695594787597656e+01
-1.137866258621215820e+00 6.498522162437438965e-01 1.781186485290527344e+01
-3.745527505874633789e+00 8.430392742156982422e-01 1.893469429016113281e+01
-3.149013996124267578e+00 1.026159048080444336e+00 2.064806175231933594e+01
-1.131994962692260742e+00 9.637637138366699219e-01 1.776991653442382812e+01
-3.729306459426879883e+00 1.180968046188354492e+00 1.887285423278808594e+01
-3.160024642944335938e+00 1.402882218360900879e+00 2.074587059020996094e+01
-1.122067093849182129e+00 1.270256400108337402e+00 1.765884971618652344e+01
-3.819238901138305664e+00 1.560959935188293457e+00 1.934694480895996094e+01
-2.191894769668579102e+00 1.724974632263183594e+00 2.039212417602539062e+01
-1.196058034896850586e+00 1.692418694496154785e+00 1.887657928466796875e+01
-3.539434909820556641e+00 1.771779417991638184e+00 1.794874763488769531e+01
-1.822897911071777344e+00 1.739279627799987793e+00 1.698817825317382812e+01
-1.563117623329162598e+00 1.753464698791503906e+00 1.459213447570800781e+01
-1.363795638084411621e+00 1.759085059165954590e+00 1.275321865081787109e+01
-1.736585855484008789e+00 1.801791191101074219e+00 1.147429084777832031e+01
-1.566537022590637207e+00 1.812379121780395508e+00 1.036476135253906250e+01
-1.434583187103271484e+00 1.831021428108215332e+00 9.503472328186035156e+00
-1.314030051231384277e+00 1.834378123283386230e+00 8.716672897338867188e+00
-1.570463061332702637e+00 1.849527478218078613e+00 8.029410362243652344e+00
-1.460518240928649902e+00 1.855367183685302734e+00 7.475967884063720703e+00
-1.364153146743774414e+00 1.859471201896667480e+00 6.991458415985107422e+00
-5.258978843688964844e+00 4.863756895065307617e-01 3.526268768310546875e+01
-3.536169290542602539e+00 6.503708362579345703e-01 3.385360336303710938e+01
-5.805949687957763672e+00 6.561020016670227051e-01 2.420064544677734375e+01
-3.234822511672973633e+00 6.887012720108032227e-01 2.171761131286621094e+01
-1.070787429809570312e+00 6.481016874313354492e-01 1.778601455688476562e+01
-3.675359487533569336e+00 8.421226739883422852e-01 1.894440269470214844e+01
-3.119775772094726562e+00 1.040858983993530273e+00 2.097168350219726562e+01
-1.066637158393859863e+00 9.628892540931701660e-01 1.776999282836914062e+01
-3.661651134490966797e+00 1.180718183517456055e+00 1.889427757263183594e+01
-3.134434938430786133e+00 1.425016760826110840e+00 2.109687232971191406e+01
-1.055691599845886230e+00 1.267598271369934082e+00 1.763501167297363281e+01
-3.699066638946533203e+00 1.539695501327514648e+00 1.910640525817871094e+01
-2.114085197448730469e+00 1.721691608428955078e+00 2.037034988403320312e+01
-1.125589251518249512e+00 1.689759492874145508e+00 1.885902404785156250e+01
-3.471011877059936523e+00 1.769727110862731934e+00 1.794798088073730469e+01
-1.760856986045837402e+00 1.738840818405151367e+00 1.699678611755371094e+01
-1.509655237197875977e+00 1.752913832664489746e+00 1.459782886505126953e+01
-1.322771549224853516e+00 1.766210794448852539e+00 1.281338214874267578e+01
-1.693395614624023438e+00 1.800122857093811035e+00 1.147282218933105469e+01
-1.525982260704040527e+00 1.808914661407470703e+00 1.035295104980468750e+01
-1.396911382675170898e+00 1.826913952827453613e+00 9.489295005798339844e+00
-1.280110597610473633e+00 1.831191301345825195e+00 8.707936286926269531e+00
-1.541054248809814453e+00 1.849213004112243652e+00 8.035179138183593750e+00
-1.432773232460021973e+00 1.854601263999938965e+00 7.479428768157958984e+00
-1.338186502456665039e+00 1.858692288398742676e+00 6.994577884674072266e+00
-5.236462593078613281e+00 4.951143264770507812e-01 3.601594924926757812e+01
-3.411682605743408203e+00 6.490183472633361816e-01 3.386237716674804688e+01
-4.677856445312500000e+00 5.360355973243713379e-01 1.981835556030273438e+01
-3.174750566482543945e+00 6.921255588531494141e-01 2.186386871337890625e+01
-1.004590034484863281e+00 6.467901468276977539e-01 1.777188301086425781e+01
-3.605170726776123047e+00 8.412070274353027344e-01 1.895384979248046875e+01
-3.089067459106445312e+00 1.055829524993896484e+00 2.130130004882812500e+01
-1.001518726348876953e+00 9.622319340705871582e-01 1.777381706237792969e+01
-3.589044332504272461e+00 1.178877353668212891e+00 1.888996315002441406e+01
-3.112893581390380859e+00 1.450190663337707520e+00 2.149338340759277344e+01
-9.920800328254699707e-01 1.268233537673950195e+00 1.765673255920410156e+01
-3.618259906768798828e+00 1.534375667572021484e+00 1.906308364868164062e+01
-2.027136564254760742e+00 1.710540771484375000e+00 2.025507164001464844e+01
-1.056379318237304688e+00 1.688883900642395020e+00 1.886109352111816406e+01
-3.404125213623046875e+00 1.768447041511535645e+00 1.795477867126464844e+01
-1.697195649147033691e+00 1.736783504486083984e+00 1.698933029174804688e+01
-1.454990029335021973e+00 1.750940918922424316e+00 1.459147071838378906e+01
-1.275437593460083008e+00 1.765184760093688965e+00 1.281426429748535156e+01
-1.652209520339965820e+00 1.800602436065673828e+00 1.148488616943359375e+01
-1.489458680152893066e+00 1.810220122337341309e+00 1.036829376220703125e+01
-1.363269090652465820e+00 1.828046321868896484e+00 9.502195358276367188e+00
-1.251271247863769531e+00 1.835337638854980469e+00 8.733956336975097656e+00
-1.510903716087341309e+00 1.848017096519470215e+00 8.037005424499511719e+00
-1.405739665031433105e+00 1.854781866073608398e+00 7.486606597900390625e+00
-1.313642024993896484e+00 1.859933972358703613e+00 7.005208015441894531e+00
-3.474909782409667969e+00 4.656298458576202393e-02 3.554451751708984375e+01
-5.240976810455322266e+00 5.052748918533325195e-01 3.685983657836914062e+01
-3.304522037506103516e+00 6.477733850479125977e-01 3.386498641967773438e+01
-4.627818584442138672e+00 5.367785692214965820e-01 1.988554573059082031e+01
-3.111681699752807617e+00 6.926579475402832031e-01 2.191333770751953125e+01
-9.475933909416198730e-01 6.454293727874755859e-01 1.775301551818847656e+01
-3.547825813293457031e+00 8.410944938659667969e-01 1.897689056396484375e+01
-3.073478221893310547e+00 1.073049426078796387e+00 2.167286872863769531e+01
-9.449494481086730957e-01 9.609142541885375977e-01 1.776294708251953125e+01
-3.532999992370605469e+00 1.179345607757568359e+00 1.891884231567382812e+01
-3.102183818817138672e+00 1.476521372795104980e+00 2.190419769287109375e+01
-9.354632496833801270e-01 1.266101717948913574e+00 1.763788795471191406e+01
-3.561303138732910156e+00 1.534998059272766113e+00 1.909008407592773438e+01
-1.959291458129882812e+00 1.706204414367675781e+00 2.021775245666503906e+01
-9.962004423141479492e-01 1.686684727668762207e+00 1.884646797180175781e+01
-3.347000122070312500e+00 1.767460584640502930e+00 1.796152496337890625e+01
-1.642499566078186035e+00 1.734819293022155762e+00 1.698076820373535156e+01
-1.406688094139099121e+00 1.747388482093811035e+00 1.457032585144042969e+01
-1.235580563545227051e+00 1.765314579010009766e+00 1.282220745086669922e+01
-1.613944888114929199e+00 1.797772169113159180e+00 1.147441768646240234e+01
-1.454437851905822754e+00 1.806814670562744141e+00 1.035541152954101562e+01
-1.330981016159057617e+00 1.824367403984069824e+00 9.488977432250976562e+00
-1.220593810081481934e+00 1.830163717269897461e+00 8.714631080627441406e+00
-1.483901977539062500e+00 1.845544219017028809e+00 8.032176971435546875e+00
-1.379418611526489258e+00 1.850746750831604004e+00 7.475754737854003906e+00
-1.290602564811706543e+00 1.858184814453125000e+00 7.003648281097412109e+00
-1.058769989013671875e+01 -2.193209230899810791e-01 5.764329910278320312e+01
-1.177833080291748047e+01 4.500894546508789062e-01 5.142035293579101562e+01
-5.208157539367675781e+00 5.139580368995666504e-01 3.761769866943359375e+01
-3.182078361511230469e+00 6.468423604965209961e-01 3.389481353759765625e+01
-4.579001903533935547e+00 5.388222932815551758e-01 2.000763320922851562e+01
-3.008635759353637695e+00 6.866323947906494141e-01 2.176026535034179688e+01
-8.817392587661743164e-01 6.441946625709533691e-01 1.774042320251464844e+01
-3.481865406036376953e+00 8.412237167358398438e-01 1.900945091247558594e+01
-3.050602674484252930e+00 1.092473864555358887e+00 2.209364509582519531e+01
-8.791662454605102539e-01 9.595044851303100586e-01 1.775236511230468750e+01
-3.468328475952148438e+00 1.180196762084960938e+00 1.895723342895507812e+01
-3.063886404037475586e+00 1.496181726455688477e+00 2.221990966796875000e+01
-8.708347082138061523e-01 1.265451312065124512e+00 1.764124488830566406e+01
-3.487396001815795898e+00 1.532520532608032227e+00 1.908148956298828125e+01
-1.731128215789794922e+00 1.566057324409484863e+00 1.857186508178710938e+01
-9.263658523559570312e-01 1.684566020965576172e+00 1.883413696289062500e+01
-3.280819892883300781e+00 1.766567349433898926e+00 1.797177696228027344e+01
-1.578807592391967773e+00 1.732563018798828125e+00 1.697088813781738281e+01
-1.348900079727172852e+00 1.741153240203857422e+00 1.452798938751220703e+01
-1.187510251998901367e+00 1.763203978538513184e+00 1.281487560272216797e+01
-1.571641206741333008e+00 1.797026276588439941e+00 1.147836303710937500e+01
-1.417305469512939453e+00 1.807439684867858887e+00 1.036659717559814453e+01
-1.296755671501159668e+00 1.824752211570739746e+00 9.497749328613281250e+00
-1.190263032913208008e+00 1.832273125648498535e+00 8.730752944946289062e+00
-1.455525636672973633e+00 1.846553325653076172e+00 8.043387413024902344e+00
-1.353422760963439941e+00 1.852347373962402344e+00 7.488476276397705078e+00
-1.264267802238464355e+00 1.856902122497558594e+00 7.004589557647705078e+00
-5.186940193176269531e+00 5.243134498596191406e-01 3.850264739990234375e+01
-3.059101104736328125e+00 6.458356380462646484e-01 3.392021560668945312e+01
-4.701397895812988281e+00 5.614023804664611816e-01 2.089424324035644531e+01
-2.925144433975219727e+00 6.849265098571777344e-01 2.174343299865722656e+01
-8.174605965614318848e-01 6.441206932067871094e-01 1.775953102111816406e+01
-3.424181222915649414e+00 8.434376716613769531e-01 1.908898353576660156e+01
-3.047557830810546875e+00 1.120276451110839844e+00 2.268480682373046875e+01
-8.136563301086425781e-01 9.583120942115783691e-01 1.774552726745605469e+01
-3.403071165084838867e+00 1.180924296379089355e+00 1.899343872070312500e+01
-3.032604217529296875e+00 1.520476102828979492e+00 2.260485649108886719e+01
-8.051016926765441895e-01 1.263087630271911621e+00 1.762044906616210938e+01
-3.426245689392089844e+00 1.535713315010070801e+00 1.914326095581054688e+01
-1.659522294998168945e+00 1.562015533447265625e+00 1.853843879699707031e+01
-8.555483818054199219e-01 1.680314898490905762e+00 1.879766464233398438e+01
-3.214258909225463867e+00 1.765482425689697266e+00 1.797982406616210938e+01
-1.514324903488159180e+00 1.729297876358032227e+00 1.695085716247558594e+01
-1.291265249252319336e+00 1.734685420989990234e+00 1.448344707489013672e+01
-1.138632416725158691e+00 1.759737968444824219e+00 1.279749393463134766e+01
-1.524372577667236328e+00 1.790457963943481445e+00 1.144492816925048828e+01
-1.376733303070068359e+00 1.803639888763427734e+00 1.035224914550781250e+01
-1.260673880577087402e+00 1.822519659996032715e+00 9.492767333984375000e+00
-1.155969619750976562e+00 1.828275680541992188e+00 8.717652320861816406e+00
-1.425385832786560059e+00 1.845358729362487793e+00 8.044892311096191406e+00
-1.325320839881896973e+00 1.851109981536865234e+00 7.489625930786132812e+00
-1.236933350563049316e+00 1.854105472564697266e+00 6.999714374542236328e+00
-1.143803977966308594e+01 -4.854343533515930176e-01 5.149884414672851562e+01
-1.051240158081054688e+01 -2.304466068744659424e-01 5.951019287109375000e+01
-1.142202186584472656e+01 4.460629522800445557e-01 5.147202301025390625e+01
-5.180186271667480469e+00 5.348459482192993164e-01 3.938721084594726562e+01
-2.956697702407836914e+00 6.456546187400817871e-01 3.397748565673828125e+01
-4.509377956390380859e+00 5.454086065292358398e-01 2.033896827697753906e+01
-5.186293125152587891e+00 1.242122769355773926e+00 3.948952484130859375e+01
-7.609904408454895020e-01 6.429821252822875977e-01 1.774605751037597656e+01
-3.368715763092041016e+00 8.439299464225769043e-01 1.912525558471679688e+01
-2.977334976196289062e+00 1.119924664497375488e+00 2.270222663879394531e+01
-7.574081420898437500e-01 9.571067690849304199e-01 1.773605155944824219e+01
-3.347208976745605469e+00 1.181634068489074707e+00 1.902569961547851562e+01
-3.251306533813476562e+00 1.668398976325988770e+00 2.482648277282714844e+01
-7.499315142631530762e-01 1.262817859649658203e+00 1.762691688537597656e+01
-3.449972152709960938e+00 1.573318243026733398e+00 1.963115882873535156e+01
-1.600784301757812500e+00 1.560918450355529785e+00 1.853765296936035156e+01
-7.960100173950195312e-01 1.678655624389648438e+00 1.878837203979492188e+01
-3.155375957489013672e+00 1.763536572456359863e+00 1.797616386413574219e+01
-1.461091518402099609e+00 1.728753566741943359e+00 1.695558357238769531e+01
-1.249697446823120117e+00 1.739668130874633789e+00 1.453299331665039062e+01
-1.101159334182739258e+00 1.763668417930603027e+00 1.283265018463134766e+01
-1.489200711250305176e+00 1.791002750396728516e+00 1.145559597015380859e+01
-1.346259832382202148e+00 1.806023597717285156e+00 1.037221622467041016e+01
-1.231124162673950195e+00 1.822582960128784180e+00 9.498684883117675781e+00
-1.129859447479248047e+00 1.830025792121887207e+00 8.731007575988769531e+00
-1.400131821632385254e+00 1.845090866088867188e+00 8.049388885498046875e+00
-1.300813674926757812e+00 1.849441885948181152e+00 7.488065242767333984e+00
-1.218602061271667480e+00 1.859424352645874023e+00 7.024597644805908203e+00
-1.121796894073486328e+01 4.434192776679992676e-01 5.144321441650390625e+01
-5.149629592895507812e+00 5.453988313674926758e-01 4.029663085937500000e+01
-2.839633941650390625e+00 6.460832357406616211e-01 3.407778930664062500e+01
-4.568881511688232422e+00 5.610671043395996094e-01 2.097072792053222656e+01
-5.168828964233398438e+00 1.271937489509582520e+00 4.050573730468750000e+01
-6.963482499122619629e-01 6.426920294761657715e-01 1.775873374938964844e+01
-4.096271514892578125e+00 1.583885669708251953e+00 3.214738845825195312e+01
-6.922603845596313477e-01 9.562404751777648926e-01 1.773475074768066406e+01
-3.295765638351440430e+00 1.187484741210937500e+00 1.914411735534667969e+01
-3.150499343872070312e+00 1.662269592285156250e+00 2.476108741760253906e+01
-6.848794221878051758e-01 1.261314511299133301e+00 1.761763191223144531e+01
-3.347615003585815430e+00 1.558398485183715820e+00 1.946688079833984375e+01
-1.527111768722534180e+00 1.554375767707824707e+00 1.847393417358398438e+01
-7.267873287200927734e-01 1.677077293395996094e+00 1.878126907348632812e+01
-3.086131095886230469e+00 1.760915637016296387e+00 1.796805000305175781e+01
-1.396023273468017578e+00 1.724482536315917969e+00 1.692519378662109375e+01
-1.197268009185791016e+00 1.740308284759521484e+00 1.454743480682373047e+01
-1.057554364204406738e+00 1.768885016441345215e+00 1.287813568115234375e+01
-1.447482228279113770e+00 1.790872693061828613e+00 1.146300220489501953e+01
-1.305800437927246094e+00 1.802226066589355469e+00 1.035759067535400391e+01
-1.195596218109130859e+00 1.821099638938903809e+00 9.497351646423339844e+00
-1.096416950225830078e+00 1.827251315116882324e+00 8.723499298095703125e+00
-1.369668960571289062e+00 1.843456983566284180e+00 8.048762321472167969e+00
-1.274042010307312012e+00 1.850096821784973145e+00 7.496681213378906250e+00
-1.187050223350524902e+00 1.850067973136901855e+00 6.994740009307861328e+00
-1.109480762481689453e+01 -4.895529150962829590e-01 5.161066436767578125e+01
-1.034693813323974609e+01 -2.403095364570617676e-01 6.099413681030273438e+01
-1.107857418060302734e+01 4.425656795501708984e-01 5.158184432983398438e+01
-5.151603698730468750e+00 5.580112338066101074e-01 4.134455108642578125e+01
-2.733375549316406250e+00 6.451803445816040039e-01 3.409652709960937500e+01
-4.230753421783447266e+00 5.264795422554016113e-01 1.971631622314453125e+01
-4.241419792175292969e+00 1.068954348564147949e+00 3.409053421020507812e+01
-6.408543586730957031e-01 6.424228549003601074e-01 1.776884460449218750e+01
-3.280807495117187500e+00 8.535603880882263184e-01 1.939800453186035156e+01
-3.992329835891723633e+00 1.581665754318237305e+00 3.213636016845703125e+01
-3.259566545486450195e+00 1.195629835128784180e+00 1.929613685607910156e+01
-3.073458909988403320e+00 1.661860108375549316e+00 2.477685356140136719e+01
-6.299052238464355469e-01 1.261474251747131348e+00 1.762970352172851562e+01
-3.288788557052612305e+00 1.558851957321166992e+00 1.949111175537109375e+01
-1.454243898391723633e+00 1.538081049919128418e+00 1.829193496704101562e+01
-6.676654219627380371e-01 1.676131725311279297e+00 1.877953147888183594e+01
-3.031679630279541016e+00 1.761471629142761230e+00 1.798948860168457031e+01
-1.341612339019775391e+00 1.722324728965759277e+00 1.691368103027343750e+01
-1.151743054389953613e+00 1.740079283714294434e+00 1.455315780639648438e+01
-1.010878682136535645e+00 1.757624864578247070e+00 1.280243396759033203e+01
-1.410282254219055176e+00 1.788967251777648926e+00 1.145774078369140625e+01
-1.274482965469360352e+00 1.803588986396789551e+00 1.037147903442382812e+01
-1.164583683013916016e+00 1.818921446800231934e+00 9.491366386413574219e+00
-1.070937156677246094e+00 1.830222010612487793e+00 8.742505073547363281e+00
-1.344081640243530273e+00 1.842749118804931641e+00 8.051156997680664062e+00
-1.248593330383300781e+00 1.847011446952819824e+00 7.489202499389648438e+00
-1.168592095375061035e+00 1.855386137962341309e+00 7.019490242004394531e+00
-1.089524459838867188e+01 -4.911244213581085205e-01 5.160203933715820312e+01
-1.100421619415283203e+01 4.451723098754882812e-01 5.216613006591796875e+01
-4.429822921752929688e+00 4.929803907871246338e-01 3.664593505859375000e+01
-4.397196769714355469e+00 5.558800697326660156e-01 2.086443138122558594e+01
-4.087962150573730469e+00 1.060264945030212402e+00 3.386971664428710938e+01
-5.754790902137756348e-01 6.414838433265686035e-01 1.776310539245605469e+01
-3.239370584487915039e+00 8.606909513473510742e-01 1.958932304382324219e+01
-3.867378950119018555e+00 1.577519178390502930e+00 3.209133529663085938e+01
-5.704060792922973633e-01 9.530996680259704590e-01 1.770318984985351562e+01
-3.204457759857177734e+00 1.200733065605163574e+00 1.940253829956054688e+01
-2.976698398590087891e+00 1.657599210739135742e+00 2.473847961425781250e+01
-5.650529861450195312e-01 1.260258555412292480e+00 1.762396430969238281e+01
-3.219628572463989258e+00 1.559197187423706055e+00 1.951686096191406250e+01
-1.392040610313415527e+00 1.542742133140563965e+00 1.836079216003417969e+01
-5.981627702713012695e-01 1.673490762710571289e+00 1.876000785827636719e+01
-2.963167428970336914e+00 1.759237766265869141e+00 1.798482704162597656e+01
-1.279492378234863281e+00 1.721491932868957520e+00 1.691656112670898438e+01
-1.096931815147399902e+00 1.737170100212097168e+00 1.453754138946533203e+01
-9.638305902481079102e-01 1.756876349449157715e+00 1.280414009094238281e+01
-1.366669178009033203e+00 1.786388397216796875e+00 1.144915866851806641e+01
-1.236025452613830566e+00 1.802514910697937012e+00 1.037223052978515625e+01
-1.129586935043334961e+00 1.818187236785888672e+00 9.493685722351074219e+00
-1.037301182746887207e+00 1.827042222023010254e+00 8.732825279235839844e+00
-1.313023567199707031e+00 1.840235829353332520e+00 8.046469688415527344e+00
-1.221791744232177734e+00 1.847666978836059570e+00 7.497631072998046875e+00
-1.141644239425659180e+00 1.853096485137939453e+00 7.016152381896972656e+00
-1.448366928100585938e+01 -6.671687364578247070e-01 6.986334228515625000e+01
-5.029419898986816406e+00 7.279768586158752441e-02 6.892070007324218750e+01
-1.094803333282470703e+01 4.486517608165740967e-01 5.285826110839843750e+01
-4.025310516357421875e+00 4.606684446334838867e-01 3.435592269897460938e+01
-1.389054059982299805e+00 3.594502806663513184e-01 1.908213233947753906e+01
-4.320708274841308594e+00 5.550578832626342773e-01 2.088043022155761719e+01
-3.958245754241943359e+00 1.057490110397338867e+00 3.383686065673828125e+01
-5.109007358551025391e-01 6.414833068847656250e-01 1.778310012817382812e+01
-3.201038837432861328e+00 8.690198659896850586e-01 1.980821037292480469e+01
-3.748373985290527344e+00 1.575716614723205566e+00 3.209344482421875000e+01
-5.058776736259460449e-01 9.530970454216003418e-01 1.771717071533203125e+01
-3.192189455032348633e+00 1.222518205642700195e+00 1.977878952026367188e+01
-2.882571458816528320e+00 1.654670000076293945e+00 2.471955108642578125e+01
-5.010440945625305176e-01 1.261039733886718750e+00 1.764590454101562500e+01
-3.194748401641845703e+00 1.581533908843994141e+00 1.981794166564941406e+01
-5.284751653671264648e-01 1.669787168502807617e+00 1.872828483581542969e+01
-2.894413471221923828e+00 1.756813883781433105e+00 1.797794151306152344e+01
-1.214085221290588379e+00 1.716017961502075195e+00 1.687356948852539062e+01
-1.043388009071350098e+00 1.736155629158020020e+00 1.453756427764892578e+01
-9.169251918792724609e-01 1.756399512290954590e+00 1.280765056610107422e+01
-1.324500441551208496e+00 1.785647988319396973e+00 1.145219230651855469e+01
-1.195997595787048340e+00 1.799061179161071777e+00 1.035913467407226562e+01
-1.095039248466491699e+00 1.818200588226318359e+00 9.499777793884277344e+00
-1.003526926040649414e+00 1.823456883430480957e+00 8.721072196960449219e+00
-1.281096696853637695e+00 1.836402654647827148e+00 8.035881042480468750e+00
-1.193112134933471680e+00 1.845486879348754883e+00 7.494448184967041016e+00
-1.114432811737060547e+00 1.850303292274475098e+00 7.010799884796142578e+00
-1.421414089202880859e+01 -6.671792864799499512e-01 6.966352844238281250e+01
-3.336092710494995117e+00 4.893703758716583252e-02 4.778366088867187500e+01
-1.088579654693603516e+01 4.511737227439880371e-01 5.340190505981445312e+01
-3.896534919738769531e+00 4.571078717708587646e-01 3.418561172485351562e+01
-1.320911526679992676e+00 3.566291034221649170e-01 1.896871948242187500e+01
-4.263877868652343750e+00 5.554972887039184570e-01 2.093701553344726562e+01
-3.846972942352294922e+00 1.055026888847351074e+00 3.380546188354492188e+01
-4.560654163360595703e-01 6.423671841621398926e-01 1.782459831237792969e+01
-3.181631088256835938e+00 8.802109956741333008e-01 2.008856773376464844e+01
-3.643499374389648438e+00 1.572921633720397949e+00 3.206938552856445312e+01
-4.513981342315673828e-01 9.550115466117858887e-01 1.776462173461914062e+01
-3.180270433425903320e+00 1.241464972496032715e+00 2.010621643066406250e+01
-2.805150508880615234e+00 1.653999686241149902e+00 2.473051643371582031e+01
-4.458776414394378662e-01 1.261200070381164551e+00 1.765740013122558594e+01
-3.152721881866455078e+00 1.591084361076354980e+00 1.995594024658203125e+01
-1.275312542915344238e+00 1.551483631134033203e+00 1.848924064636230469e+01
-4.695124030113220215e-01 1.668668985366821289e+00 1.872392845153808594e+01
-2.832362651824951172e+00 1.752762794494628906e+00 1.795160293579101562e+01
-1.162871122360229492e+00 1.718103170394897461e+00 1.690315628051757812e+01
-9.969225525856018066e-01 1.734273433685302734e+00 1.452893638610839844e+01
-8.748164176940917969e-01 1.752197623252868652e+00 1.278284549713134766e+01
-1.288321256637573242e+00 1.784970045089721680e+00 1.145438766479492188e+01
-1.163473963737487793e+00 1.798724770545959473e+00 1.036289691925048828e+01
-1.065215945243835449e+00 1.817892074584960938e+00 9.503227233886718750e+00
-9.765858650207519531e-01 1.823987126350402832e+00 8.728129386901855469e+00
-1.260990142822265625e+00 1.843620419502258301e+00 8.072690963745117188e+00
-1.171085834503173828e+00 1.847601652145385742e+00 7.507817268371582031e+00
-1.092726707458496094e+00 1.850575804710388184e+00 7.016235351562500000e+00
-1.086864948272705078e+01 -5.216158628463745117e-01 5.428214263916015625e+01
-1.082417392730712891e+01 4.547112882137298584e-01 5.411215209960937500e+01
-3.775391340255737305e+00 4.563171565532684326e-01 3.423744583129882812e+01
-1.247572302818298340e+00 3.548390865325927734e-01 1.891558265686035156e+01
-3.720442533493041992e+00 1.053004384040832520e+00 3.379552459716796875e+01
-3.902203142642974854e-01 6.408544778823852539e-01 1.780219650268554688e+01
-3.145555734634399414e+00 8.900631070137023926e-01 2.034300994873046875e+01
-3.518982887268066406e+00 1.568594932556152344e+00 3.201903533935546875e+01
-3.865204751491546631e-01 9.549005627632141113e-01 1.777617263793945312e+01
-3.131257057189941406e+00 1.250545024871826172e+00 2.027758407592773438e+01
-2.712562084197998047e+00 1.651870965957641602e+00 2.472283935546875000e+01
-3.812668919563293457e-01 1.260841488838195801e+00 1.766295051574707031e+01
-3.317250728607177734e+00 1.713045358657836914e+00 2.150837516784667969e+01
-1.201722502708435059e+00 1.543292403221130371e+00 1.840435218811035156e+01
-4.007851481437683105e-01 1.667454719543457031e+00 1.871961021423339844e+01
-2.766579151153564453e+00 1.752070665359497070e+00 1.796192741394042969e+01
-1.098872423171997070e+00 1.714248180389404297e+00 1.687559890747070312e+01
-9.429230093955993652e-01 1.732315301895141602e+00 1.452066326141357422e+01
-8.287578821182250977e-01 1.753348469734191895e+00 1.279789352416992188e+01
-1.246147274971008301e+00 1.784230709075927734e+00 1.145713233947753906e+01
-1.125302195549011230e+00 1.797992944717407227e+00 1.036519718170166016e+01
-1.030196905136108398e+00 1.817159175872802734e+00 9.505180358886718750e+00
-9.444092512130737305e-01 1.823250532150268555e+00 8.729768753051757812e+00
-1.227602362632751465e+00 1.837587594985961914e+00 8.052251815795898438e+00
-1.141836524009704590e+00 1.844477653503417969e+00 7.500598430633544922e+00
-1.066743373870849609e+00 1.849801182746887207e+00 7.018346309661865234e+00
-2.977028608322143555e+00 4.525679349899291992e-02 4.766710281372070312e+01
-1.076057052612304688e+01 4.583291709423065186e-01 5.483835601806640625e+01
-3.651165485382080078e+00 4.551817178726196289e-01 3.426300048828125000e+01
-1.177498579025268555e+00 3.539134562015533447e-01 1.890806579589843750e+01
-3.865319490432739258e+00 5.208403468132019043e-01 1.971796035766601562e+01
-3.594037055969238281e+00 1.050985217094421387e+00 3.378512191772460938e+01
-3.242172598838806152e-01 6.386978626251220703e-01 1.776156234741210938e+01
-3.112427473068237305e+00 9.012784957885742188e-01 2.062906837463378906e+01
-3.395306587219238281e+00 1.564468979835510254e+00 3.197218132019042969e+01
-3.214560747146606445e-01 9.544683098793029785e-01 1.778149986267089844e+01
-3.108096361160278320e+00 1.270678877830505371e+00 2.062850189208984375e+01
-2.620910167694091797e+00 1.650274276733398438e+00 2.472275161743164062e+01
-3.165501952171325684e-01 1.260198950767517090e+00 1.766427421569824219e+01
-3.239021539688110352e+00 1.712530970573425293e+00 2.152439308166503906e+01
-1.102050900459289551e+00 1.498768925666809082e+00 1.788551139831542969e+01
-3.316366076469421387e-01 1.663936376571655273e+00 1.868914413452148438e+01
-2.695137739181518555e+00 1.747734189033508301e+00 1.793460464477539062e+01
-1.036921739578247070e+00 1.713421106338500977e+00 1.687758827209472656e+01
-8.900907635688781738e-01 1.732486128807067871e+00 1.453003120422363281e+01
-7.807890176773071289e-01 1.750436544418334961e+00 1.278310680389404297e+01
-1.204796910285949707e+00 1.784715652465820312e+00 1.146758365631103516e+01
-1.084868431091308594e+00 1.793523669242858887e+00 1.034579467773437500e+01
-9.951781034469604492e-01 1.816426873207092285e+00 9.507002830505371094e+00
-9.122340679168701172e-01 1.822514295578002930e+00 8.731289863586425781e+00
-1.198972821235656738e+00 1.838598012924194336e+00 8.062552452087402344e+00
-1.114368557929992676e+00 1.844189167022705078e+00 7.504799365997314453e+00
-1.039624691009521484e+00 1.847010016441345215e+00 7.012703418731689453e+00
-1.078565692901611328e+01 -5.399236083030700684e-01 5.583931732177734375e+01
-1.071822452545166016e+01 4.620912671089172363e-01 5.554545211791992188e+01
-3.538378238677978516e+00 4.534145593643188477e-01 3.422459030151367188e+01
-3.823044300079345703e+00 5.228697657585144043e-01 1.983210754394531250e+01
-3.487490415573120117e+00 1.049768924713134766e+00 3.379229736328125000e+01
-2.705422043800354004e-01 6.431706547737121582e-01 1.790240859985351562e+01
-3.094906806945800781e+00 9.145721197128295898e-01 2.095899581909179688e+01
-3.296101570129394531e+00 1.564017772674560547e+00 3.199465942382812500e+01
-2.661454975605010986e-01 9.558429121971130371e-01 1.781839561462402344e+01
-3.093095064163208008e+00 1.290781021118164062e+00 2.097591972351074219e+01
-2.539376735687255859e+00 1.646959185600280762e+00 2.469319534301757812e+01
-2.614878416061401367e-01 1.261640429496765137e+00 1.769314765930175781e+01
-3.172574281692504883e+00 1.712448954582214355e+00 2.154240608215332031e+01
-1.049718856811523438e+00 1.503700137138366699e+00 1.795458984375000000e+01
-2.726274728775024414e-01 1.661404728889465332e+00 1.866823196411132812e+01
-2.621428489685058594e+00 1.735636353492736816e+00 1.782485961914062500e+01
-9.828785061836242676e-01 1.711071491241455078e+00 1.686293792724609375e+01
-8.433131575584411621e-01 1.729662299156188965e+00 1.451298332214355469e+01
-7.387039065361022949e-01 1.745427966117858887e+00 1.275192070007324219e+01
-1.165986061096191406e+00 1.780063033103942871e+00 1.144383811950683594e+01
-1.054181814193725586e+00 1.796247005462646484e+00 1.036685371398925781e+01
-9.641420245170593262e-01 1.813879966735839844e+00 9.498410224914550781e+00
-8.824573755264282227e-01 1.817354321479797363e+00 8.710789680480957031e+00
-1.172540545463562012e+00 1.836572647094726562e+00 8.058613777160644531e+00
-1.091650843620300293e+00 1.845359086990356445e+00 7.514089584350585938e+00
-1.017892718315124512e+00 1.847283244132995605e+00 7.017907142639160156e+00
-1.064394760131835938e+01 4.655767977237701416e-01 5.626822662353515625e+01
-3.409557104110717773e+00 4.516780972480773926e-01 3.420351409912109375e+01
-1.049451231956481934e+00 3.528373837471008301e-01 1.892764472961425781e+01
-3.762965202331542969e+00 5.238512158393859863e-01 1.991279983520507812e+01
-3.360666990280151367e+00 1.047570109367370605e+00 3.377505111694335938e+01
-2.059682905673980713e-01 6.457490324974060059e-01 1.799323844909667969e+01
-3.063344478607177734e+00 9.274701476097106934e-01 2.128469467163085938e+01
-3.176870822906494141e+00 1.561841607093811035e+00 3.198670196533203125e+01
-2.006748914718627930e-01 9.543402194976806641e-01 1.780331230163574219e+01
-3.066484451293945312e+00 1.311473250389099121e+00 2.133691406250000000e+01
-2.451642274856567383e+00 1.647881507873535156e+00 2.473019790649414062e+01
-1.972155123949050903e-01 1.264552950859069824e+00 1.774390411376953125e+01
-3.092494726181030273e+00 1.710995078086853027e+00 2.154605484008789062e+01
-1.003013849258422852e+00 1.532184600830078125e+00 1.830663299560546875e+01
-2.040809243917465210e-01 1.659487366676330566e+00 1.865522193908691406e+01
-2.565431356430053711e+00 1.741278409957885742e+00 1.789944267272949219e+01
-9.205543994903564453e-01 1.709440827369689941e+00 1.685655403137207031e+01
-7.900373935699462891e-01 1.728889703750610352e+00 1.451405620574951172e+01
-6.925280094146728516e-01 1.746310114860534668e+00 1.276449775695800781e+01
-1.125030875205993652e+00 1.781160950660705566e+00 1.145793533325195312e+01
-1.015440225601196289e+00 1.794497966766357422e+00 1.036286735534667969e+01
-9.278228878974914551e-01 1.810536265373229980e+00 9.486300468444824219e+00
-8.505554795265197754e-01 1.817026376724243164e+00 8.714030265808105469e+00
-1.143848896026611328e+00 1.837583184242248535e+00 8.068717956542968750e+00
-1.063861727714538574e+00 1.844598650932312012e+00 7.516182422637939453e+00
-9.919239878654479980e-01 1.846510052680969238e+00 7.019740581512451172e+00
-1.067280864715576172e+01 -5.579625964164733887e-01 5.734865951538085938e+01
-2.507109880447387695e+00 4.054282605648040771e-02 4.777824783325195312e+01
-1.060129737854003906e+01 4.696360826492309570e-01 5.702301025390625000e+01
-3.295375347137451172e+00 4.496574401855468750e-01 3.414439773559570312e+01
-9.857097864151000977e-01 3.507150113582611084e-01 1.884898567199707031e+01
-3.697844028472900391e+00 5.228232741355895996e-01 1.991077804565429688e+01
-3.254946708679199219e+00 1.046604037284851074e+00 3.378945922851562500e+01
-1.516598165035247803e-01 6.547217965126037598e-01 1.825963592529296875e+01
-3.043811559677124023e+00 9.414102435111999512e-01 2.163061141967773438e+01
-1.729861855506896973e+00 8.776465654373168945e-01 1.799173545837402344e+01
-3.050848484039306641e+00 1.333229422569274902e+00 2.171220779418945312e+01
-1.422226876020431519e-01 1.270538806915283203e+00 1.783623886108398438e+01
-3.024817943572998047e+00 1.710287094116210938e+00 2.155571746826171875e+01
-9.700868725776672363e-01 1.571398138999938965e+00 1.878544616699218750e+01
-1.445977836847305298e-01 1.648634195327758789e+00 1.854028129577636719e+01
-2.519710779190063477e+00 1.747972846031188965e+00 1.798238563537597656e+01
-8.672107458114624023e-01 1.708101749420166016e+00 1.685146713256835938e+01
-6.521464586257934570e-01 1.745094537734985352e+00 1.276072597503662109e+01
-1.088681578636169434e+00 1.780180335044860840e+00 1.145753192901611328e+01
-9.832776784896850586e-01 1.794843316078186035e+00 1.036998558044433594e+01
-8.989682793617248535e-01 1.812096476554870605e+00 9.499005317687988281e+00
-8.232017159461975098e-01 1.816745638847351074e+00 8.716715812683105469e+00
-1.115843296051025391e+00 1.832919716835021973e+00 8.053002357482910156e+00
-1.040270209312438965e+00 1.844351887702941895e+00 7.519544124603271484e+00
-9.709515571594238281e-01 1.848295807838439941e+00 7.030548095703125000e+00
-1.053536319732666016e+01 -5.640984773635864258e-01 5.778676223754882812e+01
-1.052053165435791016e+01 4.731817841529846191e-01 5.776588821411132812e+01
-3.174288034439086914e+00 4.489496052265167236e-01 3.420006942749023438e+01
-9.176959991455078125e-01 3.504280745983123779e-01 1.887445449829101562e+01
-3.774086713790893555e+00 5.435388088226318359e-01 2.074447441101074219e+01
-3.130550861358642578e+00 1.045149922370910645e+00 3.379522705078125000e+01
-8.613958954811096191e-02 6.648002266883850098e-01 1.855989646911621094e+01
-3.023105144500732422e+00 9.591667652130126953e-01 2.206926536560058594e+01
-1.662637710571289062e+00 8.762921690940856934e-01 1.798406028747558594e+01
-8.062903583049774170e-02 9.664013385772705078e-01 1.805197143554687500e+01
-3.018888473510742188e+00 1.353749752044677734e+00 2.207140159606933594e+01
-7.767219841480255127e-02 1.283102869987487793e+00 1.802221488952636719e+01
-2.941236495971679688e+00 1.706800222396850586e+00 2.153313636779785156e+01
-9.596985578536987305e-01 1.672557115554809570e+00 2.000728607177734375e+01
-7.667338848114013672e-02 1.647964000701904297e+00 1.854074668884277344e+01
-2.465384721755981445e+00 1.755522012710571289e+00 1.807638168334960938e+01
-8.035722374916076660e-01 1.703453779220581055e+00 1.681484031677246094e+01
-6.892043352127075195e-01 1.722701787948608398e+00 1.447556972503662109e+01
-6.050265431404113770e-01 1.743541955947875977e+00 1.275517749786376953e+01
-1.045452713966369629e+00 1.777610540390014648e+00 1.144773006439208984e+01
-9.442207813262939453e-01 1.792416572570800781e+00 1.036180686950683594e+01
-8.631096482276916504e-01 1.809501290321350098e+00 9.490561485290527344e+00
-7.905706763267517090e-01 1.814793348312377930e+00 8.711937904357910156e+00
-1.086611628532409668e+00 1.833051443099975586e+00 8.059038162231445312e+00
-1.011177897453308105e+00 1.841231703758239746e+00 7.511816024780273438e+00
-9.434033036231994629e-01 1.844499230384826660e+00 7.020699024200439453e+00
-2.162965297698974609e+00 3.712753951549530029e-02 4.793120574951171875e+01
-1.044394302368164062e+01 4.771076440811157227e-01 5.856209182739257812e+01
-3.042186021804809570e+00 4.466761648654937744e-01 3.413579940795898438e+01
-8.462762832641601562e-01 3.488081097602844238e-01 1.882776260375976562e+01
-3.523413896560668945e+00 5.171023011207580566e-01 1.977795219421386719e+01
-3.007927656173706055e+00 1.044312596321105957e+00 3.382044982910156250e+01
-1.852242648601531982e-02 6.785771250724792480e-01 1.896385383605957031e+01
-2.976263046264648438e+00 9.694125056266784668e-01 2.233573341369628906e+01
-1.590724587440490723e+00 8.723247051239013672e-01 1.792241096496582031e+01
-1.464732736349105835e-02 9.766475558280944824e-01 1.825588798522949219e+01
-3.000133752822875977e+00 1.381518483161926270e+00 2.254938316345214844e+01
-1.185633987188339233e-02 1.306159377098083496e+00 1.835558128356933594e+01
-2.862325429916381836e+00 1.705977320671081543e+00 2.154383277893066406e+01
-8.872745037078857422e-01 1.673484325408935547e+00 2.003064155578613281e+01
-8.744925260543823242e-03 1.646763801574707031e+00 1.853498649597167969e+01
-2.407524347305297852e+00 1.760959029197692871e+00 1.814851188659667969e+01
-7.413541078567504883e-01 1.701426029205322266e+00 1.680381965637207031e+01
-6.367848515510559082e-01 1.723821282386779785e+00 1.449194908142089844e+01
-5.586493611335754395e-01 1.744154810905456543e+00 1.276529026031494141e+01
-1.003690838813781738e+00 1.777486920356750488e+00 1.145351886749267578e+01
-9.072971343994140625e-01 1.794064879417419434e+00 1.037704372406005859e+01
-8.288624286651611328e-01 1.810264587402343750e+00 9.499598503112792969e+00
-7.583254575729370117e-01 1.813654422760009766e+00 8.710941314697265625e+00
-1.057350754737854004e+00 1.833183526992797852e+00 8.064966201782226562e+00
-9.821563959121704102e-01 1.838112711906433105e+00 7.503975391387939453e+00
-9.184478521347045898e-01 1.845742821693420410e+00 7.029932975769042969e+00
-1.043391036987304688e+01 -5.846452713012695312e-01 5.952360916137695312e+01
-2.073787212371826172e+00 3.670428693294525146e-02 4.940047836303710938e+01
-1.039445686340332031e+01 4.813859164714813232e-01 5.936290740966796875e+01
-2.936655282974243164e+00 4.458401501178741455e-01 3.416512298583984375e+01
-7.862960696220397949e-01 3.478455841541290283e-01 1.881035804748535156e+01
-3.475396633148193359e+00 5.185504555702209473e-01 1.986968421936035156e+01
-2.902537584304809570e+00 1.043533921241760254e+00 3.383972167968750000e+01
4.224842786788940430e-02 6.979278922080993652e-01 1.952148056030273438e+01
-4.638104915618896484e+00 1.546008229255676270e+00 3.566244125366210938e+01
-1.531360507011413574e+00 8.700071573257446289e-01 1.789152145385742188e+01
4.408961534500122070e-02 1.008117794990539551e+00 1.885501480102539062e+01
-2.964262485504150391e+00 1.397260665893554688e+00 2.282797813415527344e+01
4.732100665569305420e-02 1.349296450614929199e+00 1.897001457214355469e+01
-2.789272308349609375e+00 1.701987266540527344e+00 2.151124763488769531e+01
-8.210087418556213379e-01 1.666035890579223633e+00 1.995173454284667969e+01
4.964995384216308594e-02 1.652560830116271973e+00 1.860669136047363281e+01
-2.339533805847167969e+00 1.752134203910827637e+00 1.807114219665527344e+01
-6.880157589912414551e-01 1.699488520622253418e+00 1.679220199584960938e+01
-5.910372734069824219e-01 1.722657203674316406e+00 1.448797893524169922e+01
-5.182477235794067383e-01 1.742671012878417969e+00 1.275911712646484375e+01
-9.670645594596862793e-01 1.775897502899169922e+00 1.144879245758056641e+01
-8.735600709915161133e-01 1.791356205940246582e+00 1.036614990234375000e+01
-7.972297072410583496e-01 1.805857300758361816e+00 9.480672836303710938e+00
-7.303270101547241211e-01 1.811750411987304688e+00 8.705531120300292969e+00
-1.029807329177856445e+00 1.828963041305541992e+00 8.050887107849121094e+00
-9.583573341369628906e-01 1.837395429611206055e+00 7.505152702331542969e+00
-8.944268822669982910e-01 1.841482520103454590e+00 7.017480850219726562e+00
-1.031293201446533203e+01 4.854877591133117676e-01 6.019502258300781250e+01
-2.824381113052368164e+00 4.466103911399841309e-01 3.433312606811523438e+01
-7.168997526168823242e-01 3.469340503215789795e-01 1.880113792419433594e+01
-3.429539918899536133e+00 5.218845605850219727e-01 2.003996276855468750e+01
1.181397438049316406e-01 7.239235639572143555e-01 2.026873016357421875e+01
-4.449295520782470703e+00 1.524738073348999023e+00 3.521934127807617188e+01
-1.460900187492370605e+00 8.664367794990539551e-01 1.783731460571289062e+01
1.180194169282913208e-01 1.050549745559692383e+00 1.966160011291503906e+01
-3.372483730316162109e+00 1.634834408760070801e+00 2.673861503601074219e+01
-1.448575019836425781e+00 1.176176548004150391e+00 1.772605895996093750e+01
1.302765458822250366e-01 1.503912210464477539e+00 2.115420913696289062e+01
-2.712186813354492188e+00 1.702262163162231445e+00 2.153523445129394531e+01
-6.967726945877075195e-01 1.551446914672851562e+00 1.859036636352539062e+01
1.177280843257904053e-01 1.650653243064880371e+00 1.859250068664550781e+01
-2.269341945648193359e+00 1.748384118080139160e+00 1.804805564880371094e+01
-6.258275508880615234e-01 1.697062134742736816e+00 1.677677536010742188e+01
-5.372993946075439453e-01 1.720002770423889160e+00 1.447224712371826172e+01
-4.703393876552581787e-01 1.737877249717712402e+00 1.272930908203125000e+01
-9.244901537895202637e-01 1.774247765541076660e+00 1.144444274902343750e+01
-8.341661691665649414e-01 1.787914752960205078e+00 1.035166454315185547e+01
-7.625066041946411133e-01 1.805503010749816895e+00 9.483594894409179688e+00
-6.982887983322143555e-01 1.811018943786621094e+00 8.706261634826660156e+00
-1.002487301826477051e+00 1.832612752914428711e+00 8.072099685668945312e+00
-9.313521385192871094e-01 1.838053464889526367e+00 7.512538909912109375e+00
-8.708703517913818359e-01 1.845749139785766602e+00 7.038066387176513672e+00
-1.023915958404541016e+01 -6.035217046737670898e-01 6.104023361206054688e+01
-1.022875118255615234e+01 4.896883070468902588e-01 6.104705429077148438e+01
-2.709505319595336914e+00 4.471378028392791748e-01 3.448282241821289062e+01
-6.499230861663818359e-01 3.472755849361419678e-01 1.885960769653320312e+01
2.007980793714523315e-01 7.547159790992736816e-01 2.115158653259277344e+01
-4.239964962005615234e+00 1.495101094245910645e+00 3.458097076416015625e+01
-1.393350243568420410e+00 8.644178509712219238e-01 1.781469726562500000e+01
2.010265737771987915e-01 1.110413074493408203e+00 2.079540443420410156e+01
-3.267214298248291016e+00 1.630186319351196289e+00 2.669141006469726562e+01
-1.379737019538879395e+00 1.172217011451721191e+00 1.768155097961425781e+01
2.086631208658218384e-01 1.509531021118164062e+00 2.124341201782226562e+01
-2.629399061203002930e+00 1.698942065238952637e+00 2.151342391967773438e+01
-6.254267096519470215e-01 1.542791247367858887e+00 1.849723625183105469e+01
1.856628209352493286e-01 1.648394107818603516e+00 1.857407379150390625e+01
-2.199109315872192383e+00 1.744445681571960449e+00 1.802271842956542969e+01
-5.640294551849365234e-01 1.695442318916320801e+00 1.676907539367675781e+01
-4.836850762367248535e-01 1.717350602149963379e+00 1.445631694793701172e+01
-4.234476089477539062e-01 1.736330032348632812e+00 1.272308635711669922e+01
-8.825685977935791016e-01 1.773820638656616211e+00 1.144781875610351562e+01
-7.970060110092163086e-01 1.789224743843078613e+00 1.036454296112060547e+01
-7.280736565589904785e-01 1.805894613265991211e+00 9.490310668945312500e+00
-6.661057472229003906e-01 1.809882164001464844e+00 8.704921722412109375e+00
-9.715255498886108398e-01 1.829668760299682617e+00 8.064162254333496094e+00
-9.043059349060058594e-01 1.838711619377136230e+00 7.519826889038085938e+00
-8.432543277740478516e-01 1.841452240943908691e+00 7.025903701782226562e+00
-2.672609329223632812e+00 4.582851529121398926e-01 3.543840789794921875e+01
-5.902408361434936523e-01 3.464270234107971191e-01 1.884757804870605469e+01
-3.413543701171875000e+00 5.394809842109680176e-01 2.079681015014648438e+01
-1.490756511688232422e+00 6.084064245223999023e-01 1.981468963623046875e+01
4.540403485298156738e-01 1.281191587448120117e+00 3.593630599975585938e+01
-4.125644683837890625e+00 1.491918683052062988e+00 3.454655075073242188e+01
2.785121202468872070e-01 1.160503625869750977e+00 2.174527549743652344e+01
-3.185026168823242188e+00 1.630163908004760742e+00 2.671546936035156250e+01
-1.322562217712402344e+00 1.170201897621154785e+00 1.766394424438476562e+01
2.921066880226135254e-01 1.600552558898925781e+00 2.253333663940429688e+01
-2.563241004943847656e+00 1.699178934097290039e+00 2.153351020812988281e+01
2.443283796310424805e-01 1.650120496749877930e+00 1.859934425354003906e+01
-2.139686584472656250e+00 1.741564393043518066e+00 1.800587081909179688e+01
-5.116745233535766602e-01 1.695921659469604492e+00 1.678075981140136719e+01
-4.387141764163970947e-01 1.718547582626342773e+00 1.447171401977539062e+01
-3.838590085506439209e-01 1.737552762031555176e+00 1.273629188537597656e+01
-8.447314500808715820e-01 1.769486188888549805e+00 1.142496395111083984e+01
-7.630177736282348633e-01 1.785501956939697266e+00 1.034739494323730469e+01
-6.965518593788146973e-01 1.801118612289428711e+00 9.469091415405273438e+00
-6.394979357719421387e-01 1.811633825302124023e+00 8.716794013977050781e+00
-9.448491334915161133e-01 1.826769590377807617e+00 8.055603981018066406e+00
-8.804777264595031738e-01 1.837995171546936035e+00 7.520757198333740234e+00
-8.214286565780639648e-01 1.841727256774902344e+00 7.030497074127197266e+00
-2.634004354476928711e+00 4.733712375164031982e-01 3.672060775756835938e+01
-5.205033421516418457e-01 3.452985882759094238e-01 1.882564163208007812e+01
-3.341108798980712891e+00 5.392903089523315430e-01 2.083289146423339844e+01
5.811620950698852539e-01 1.269938945770263672e+00 3.565465545654296875e+01
-4.112256050109863281e+00 1.532812595367431641e+00 3.554006195068359375e+01
-1.268961668014526367e+00 8.610621690750122070e-01 1.777998924255371094e+01
4.688116312026977539e-01 1.517898440361022949e+00 2.845969390869140625e+01
-3.068793773651123047e+00 1.619479656219482422e+00 2.656836891174316406e+01
-1.259534597396850586e+00 1.171125531196594238e+00 1.769260406494140625e+01
3.748954534530639648e-01 1.600736737251281738e+00 2.254613685607910156e+01
-2.481589794158935547e+00 1.696488142013549805e+00 2.151905250549316406e+01
-5.362485647201538086e-01 1.654752016067504883e+00 1.985996627807617188e+01
