# .PCD v0.7 - Point Cloud Data file format
VERSION 0.7
FIELDS x y z
SIZE 4 4 4
TYPE F F F
COUNT 1 1 1
WIDTH 636
HEIGHT 1
VIEWPOINT 0 0 0 1 0 0 0
POINTS 636
DATA ascii
1.352037811279296875e+01 -1.081768795847892761e-01 2.259561729431152344e+01
1.236733245849609375e+01 8.358341455459594727e-02 2.862662887573242188e+01
1.291911411285400391e+01 2.171061187982559204e-01 2.391010093688964844e+01
1.224205875396728516e+01 3.247860968112945557e-01 2.045414733886718750e+01
6.260408401489257812e+00 3.218916058540344238e-01 1.448579597473144531e+01
1.089702033996582031e+01 5.892043113708496094e-01 2.016207504272460938e+01
1.183086395263671875e+01 6.674568653106689453e-01 1.793257331848144531e+01
1.013859558105468750e+01 8.783769607543945312e-01 2.089786529541015625e+01
9.948159217834472656e+00 9.084312915802001953e-01 1.840132522583007812e+01
9.853817939758300781e+00 8.726503849029541016e-01 1.493252944946289062e+01
8.068528175354003906e+00 1.025938391685485840e+00 1.662505340576171875e+01
7.989740848541259766e+00 1.026924610137939453e+00 1.477467536926269531e+01
8.175311088562011719e+00 9.858804941177368164e-01 1.238661289215087891e+01
6.745127201080322266e+00 1.131641745567321777e+00 1.389384174346923828e+01
7.242218017578125000e+00 1.107013463973999023e+00 1.208930587768554688e+01
7.524548053741455078e+00 1.148665785789489746e+00 1.139807701110839844e+01
5.755859851837158203e+00 1.198287606239318848e+00 1.185188102722167969e+01
6.690118312835693359e+00 1.252485394477844238e+00 1.116491699218750000e+01
6.320499420166015625e+00 1.400237202644348145e+00 1.054544830322265625e+01
5.894232273101806641e+00 1.507836818695068359e+00 9.831800460815429688e+00
5.145062446594238281e+00 1.614577889442443848e+00 9.500275611877441406e+00
4.766840457916259766e+00 1.671688199043273926e+00 8.799091339111328125e+00
4.463104724884033203e+00 1.729511618614196777e+00 8.236148834228515625e+00
4.194585323333740234e+00 1.779484748840332031e+00 7.738170623779296875e+00
3.627898454666137695e+00 1.822298407554626465e+00 7.449552536010742188e+00
3.336625099182128906e+00 1.808511257171630859e+00 6.848731517791748047e+00
1.517165279388427734e+01 -6.448124647140502930e-01 2.518169975280761719e+01
1.379385566711425781e+01 -5.183077454566955566e-01 3.166620826721191406e+01
1.415870761871337891e+01 -3.053677082061767578e-01 2.897635841369628906e+01
1.350664615631103516e+01 -1.080123186111450195e-01 2.241256332397460938e+01
1.246838378906250000e+01 8.294337987899780273e-02 2.861330795288085938e+01
9.113792419433593750e+00 1.518794000148773193e-01 1.674143218994140625e+01
1.271714496612548828e+01 3.351512551307678223e-01 2.109725952148437500e+01
1.187346267700195312e+01 6.054153442382812500e-01 2.723844337463378906e+01
1.136856937408447266e+01 6.106615066528320312e-01 2.087752723693847656e+01
1.181523418426513672e+01 6.630306839942932129e-01 1.778710556030273438e+01
1.016028308868408203e+01 8.740937709808349609e-01 2.077617073059082031e+01
9.949514389038085938e+00 9.028822183609008789e-01 1.826648139953613281e+01
9.832127571105957031e+00 8.662854433059692383e-01 1.479836940765380859e+01
8.093496322631835938e+00 1.022100210189819336e+00 1.654404830932617188e+01
8.005537986755371094e+00 1.022673606872558594e+00 1.469343948364257812e+01
8.182138442993164062e+00 9.817667603492736816e-01 1.231270027160644531e+01
6.775573253631591797e+00 1.129113554954528809e+00 1.384574508666992188e+01
7.282204151153564453e+00 1.107052683830261230e+00 1.206994247436523438e+01
7.543752670288085938e+00 1.145903348922729492e+00 1.134952259063720703e+01
5.792171001434326172e+00 1.197819232940673828e+00 1.183198833465576172e+01
6.744685649871826172e+00 1.255871534347534180e+00 1.117626953125000000e+01
6.345360755920410156e+00 1.398188114166259766e+00 1.051197528839111328e+01
5.920969009399414062e+00 1.506570935249328613e+00 9.806491851806640625e+00
5.168227195739746094e+00 1.612286210060119629e+00 9.471961021423339844e+00
4.786874294281005859e+00 1.668846011161804199e+00 8.770272254943847656e+00
4.486104965209960938e+00 1.728229284286499023e+00 8.216963768005371094e+00
4.215090751647949219e+00 1.777718186378479004e+00 7.718128681182861328e+00
3.647814750671386719e+00 1.820399999618530273e+00 7.431161880493164062e+00
3.364103078842163086e+00 1.811578989028930664e+00 6.850497722625732422e+00
1.516626358032226562e+01 -6.413500308990478516e-01 2.496526718139648438e+01
1.380191230773925781e+01 -5.151994228363037109e-01 3.137014389038085938e+01
1.364383697509765625e+01 -2.928560078144073486e-01 2.766512298583984375e+01
1.350768852233886719e+01 -1.079560369253158569e-01 2.222959136962890625e+01
1.259089088439941406e+01 8.222793042659759521e-02 2.860769271850585938e+01
9.193376541137695312e+00 1.517240703105926514e-01 1.674123191833496094e+01
1.274867248535156250e+01 3.333996236324310303e-01 2.097532844543457031e+01
1.178143501281738281e+01 5.949403643608093262e-01 2.675920867919921875e+01
1.149023914337158203e+01 6.125029921531677246e-01 2.091810417175292969e+01
1.182472419738769531e+01 6.594777703285217285e-01 1.766065216064453125e+01
1.021865367889404297e+01 8.719983100891113281e-01 2.070298385620117188e+01
9.983664512634277344e+00 8.994362354278564453e-01 1.817038536071777344e+01
9.872945785522460938e+00 8.647415041923522949e-01 1.474234962463378906e+01
8.135493278503417969e+00 1.019307732582092285e+00 1.647671127319335938e+01
8.024705886840820312e+00 1.017881870269775391e+00 1.460105705261230469e+01
8.221639633178710938e+00 9.807918667793273926e-01 1.227437591552734375e+01
6.813004016876220703e+00 1.126532435417175293e+00 1.379403400421142578e+01
6.606171131134033203e+00 9.979394674301147461e-01 1.085933303833007812e+01
7.578624725341796875e+00 1.144610047340393066e+00 1.131190586090087891e+01
5.818713188171386719e+00 1.194045901298522949e+00 1.177679538726806641e+01
6.650014877319335938e+00 1.230492115020751953e+00 1.092872810363769531e+01
6.384855747222900391e+00 1.398137211799621582e+00 1.049039649963378906e+01
5.940347671508789062e+00 1.502140641212463379e+00 9.757679939270019531e+00
5.195251464843750000e+00 1.609663605690002441e+00 9.439151763916015625e+00
4.815153121948242188e+00 1.667289018630981445e+00 8.745817184448242188e+00
4.503828048706054688e+00 1.723285675048828125e+00 8.178132057189941406e+00
4.229132175445556641e+00 1.771564126014709473e+00 7.676937103271484375e+00
3.680199146270751953e+00 1.822767734527587891e+00 7.428309917449951172e+00
3.392615079879760742e+00 1.813233375549316406e+00 6.845162868499755859e+00
5.679446220397949219e+00 -4.586691558361053467e-01 1.278583240509033203e+01
1.632996177673339844e+01 -9.991710782051086426e-01 3.281802749633789062e+01
1.531824493408203125e+01 -6.445554494857788086e-01 2.500838661193847656e+01
5.686738967895507812e+00 -2.108944207429885864e-01 1.279783439636230469e+01
1.376474571228027344e+01 -2.940530478954315186e-01 2.765431022644042969e+01
1.350234889984130859e+01 -1.078479364514350891e-01 2.203838920593261719e+01
5.692246437072753906e+00 3.649617731571197510e-02 1.280582618713378906e+01
1.291583442687988281e+01 2.111101597547531128e-01 2.331692504882812500e+01
1.276380538940429688e+01 3.312481939792633057e-01 2.082787513732910156e+01
5.691103935241699219e+00 2.846481800079345703e-01 1.279884433746337891e+01
1.160848236083984375e+01 6.141377091407775879e-01 2.095107460021972656e+01
1.181443691253662109e+01 6.548778414726257324e-01 1.750620269775390625e+01
1.030424976348876953e+01 8.722459077835083008e-01 2.068510246276855469e+01
1.001240158081054688e+01 8.955625891685485840e-01 1.806554985046386719e+01
9.903425216674804688e+00 8.623248934745788574e-01 1.467132663726806641e+01
8.171761512756347656e+00 1.015854954719543457e+00 1.639856338500976562e+01
8.055885314941406250e+00 1.014680385589599609e+00 1.453142833709716797e+01
8.250922203063964844e+00 9.786270856857299805e-01 1.222104167938232422e+01
6.851927280426025391e+00 1.124246478080749512e+00 1.374580383300781250e+01
6.640697956085205078e+00 9.968715906143188477e-01 1.082658576965332031e+01
7.601052284240722656e+00 1.141476392745971680e+00 1.125601768493652344e+01
5.860039234161376953e+00 1.193352699279785156e+00 1.175186920166015625e+01
6.653565883636474609e+00 1.223504424095153809e+00 1.084493541717529297e+01
6.411804199218750000e+00 1.395373463630676270e+00 1.044834613800048828e+01
5.961522579193115234e+00 1.498234510421752930e+00 9.712237358093261719e+00
5.224984169006347656e+00 1.607929348945617676e+00 9.411458015441894531e+00
4.841401100158691406e+00 1.665074586868286133e+00 8.717823982238769531e+00
4.532788276672363281e+00 1.722700238227844238e+00 8.159914016723632812e+00
4.255307197570800781e+00 1.770562887191772461e+00 7.658022403717041016e+00
3.700381755828857422e+00 1.819123506546020508e+00 7.400860786437988281e+00
3.421132564544677734e+00 1.814888358116149902e+00 6.839709758758544922e+00
5.741819858551025391e+00 -4.602850079536437988e-01 1.279956722259521484e+01
1.635952758789062500e+01 -9.945827126502990723e-01 3.257747268676757812e+01
1.496643543243408203e+01 -6.266469955444335938e-01 2.423413085937500000e+01
5.733607292175292969e+00 -2.112644314765930176e-01 1.277689838409423828e+01
1.427626323699951172e+01 -3.035520017147064209e-01 2.842037391662597656e+01
1.349474048614501953e+01 -1.077209040522575378e-01 2.184582328796386719e+01
5.735045433044433594e+00 3.610019385814666748e-02 1.277575588226318359e+01
1.270953083038330078e+01 2.057551294565200806e-01 2.274741363525390625e+01
1.277907943725585938e+01 3.291319608688354492e-01 2.068229484558105469e+01
5.738788127899169922e+00 2.843187749385833740e-01 1.277973365783691406e+01
1.169395923614501953e+01 6.140298247337341309e-01 2.092411804199218750e+01
1.181779289245605469e+01 6.510913968086242676e-01 1.737355232238769531e+01
1.036291885375976562e+01 8.702334761619567871e-01 2.061330223083496094e+01
1.002977943420410156e+01 8.907426595687866211e-01 1.794155883789062500e+01
9.913290023803710938e+00 8.581610918045043945e-01 1.457055091857910156e+01
8.200388908386230469e+00 1.011521458625793457e+00 1.630609893798828125e+01
8.089588165283203125e+00 1.011848568916320801e+00 1.446699523925781250e+01
8.284413337707519531e+00 9.769948720932006836e-01 1.217425727844238281e+01
6.883417129516601562e+00 1.120795965194702148e+00 1.368322181701660156e+01
6.691852569580078125e+00 9.983087182044982910e-01 1.082086563110351562e+01
7.642236232757568359e+00 1.141192674636840820e+00 1.122812557220458984e+01
5.886039733886718750e+00 1.189585089683532715e+00 1.169655132293701172e+01
6.681728363037109375e+00 1.221114873886108398e+00 1.080189704895019531e+01
6.435394763946533203e+00 1.391933679580688477e+00 1.040116882324218750e+01
5.979314327239990234e+00 1.493548750877380371e+00 9.661713600158691406e+00
5.251685142517089844e+00 1.605310678482055664e+00 9.378497123718261719e+00
4.877149105072021484e+00 1.666155457496643066e+00 8.706966400146484375e+00
4.559751987457275391e+00 1.721390008926391602e+00 8.138161659240722656e+00
4.274690151214599609e+00 1.766789793968200684e+00 7.627048492431640625e+00
3.736251592636108398e+00 1.823210000991821289e+00 7.404754638671875000e+00
3.463686227798461914e+00 1.823931813240051270e+00 6.861935138702392578e+00
1.641756248474121094e+01 -9.926896691322326660e-01 3.243847656250000000e+01
1.511958694458007812e+01 -6.304042935371398926e-01 2.431092834472656250e+01
1.456580162048339844e+01 -5.337698459625244141e-01 3.218763732910156250e+01
8.497520446777343750e+00 -1.799615472555160522e-01 1.678470802307128906e+01
1.349040889739990234e+01 -1.076289191842079163e-01 2.168614387512207031e+01
1.295491123199462891e+01 8.027192950248718262e-02 2.861823081970214844e+01
1.289863967895507812e+01 2.071171402931213379e-01 2.291652297973632812e+01
1.277848052978515625e+01 3.269923329353332520e-01 2.053678512573242188e+01
1.205848884582519531e+01 5.926116108894348145e-01 2.662897300720214844e+01
1.163309192657470703e+01 6.069423556327819824e-01 2.066255569458007812e+01
1.109632778167724609e+01 6.081860065460205078e-01 1.620325469970703125e+01
1.043393516540527344e+01 8.702663779258728027e-01 2.059315490722656250e+01
1.003999805450439453e+01 8.862583637237548828e-01 1.782816314697265625e+01
9.922877311706542969e+00 8.547353744506835938e-01 1.448662662506103516e+01
8.240725517272949219e+00 1.009802818298339844e+00 1.625891494750976562e+01
8.106566429138183594e+00 1.007979750633239746e+00 1.439110374450683594e+01
8.312453269958496094e+00 9.755412340164184570e-01 1.213338565826416016e+01
6.910116195678710938e+00 1.117841362953186035e+00 1.362954139709472656e+01
6.714203834533691406e+00 9.963459372520446777e-01 1.078120326995849609e+01
7.658303260803222656e+00 1.138104557991027832e+00 1.117614936828613281e+01
5.931747436523437500e+00 1.191113591194152832e+00 1.169580364227294922e+01
6.718769550323486328e+00 1.221446990966796875e+00 1.078596115112304688e+01
6.455407619476318359e+00 1.388987421989440918e+00 1.036070537567138672e+01
5.993883609771728516e+00 1.489423155784606934e+00 9.617685317993164062e+00
5.265548706054687500e+00 1.600366950035095215e+00 9.334436416625976562e+00
4.896698951721191406e+00 1.663318991661071777e+00 8.677908897399902344e+00
4.567869663238525391e+00 1.714669227600097656e+00 8.093020439147949219e+00
4.291858673095703125e+00 1.763840198516845703e+00 7.601687431335449219e+00
3.753271341323852539e+00 1.820026993751525879e+00 7.380849361419677734e+00
3.501964807510375977e+00 1.832539796829223633e+00 6.884030818939208984e+00
1.637540054321289062e+01 -9.839244484901428223e-01 3.206291198730468750e+01
1.510768508911132812e+01 -6.268510818481445312e-01 2.409439468383789062e+01
1.476346778869628906e+01 -5.376017093658447266e-01 3.230863189697265625e+01
8.534414291381835938e+00 -1.799122989177703857e-01 1.670535850524902344e+01
1.348585128784179688e+01 -1.075248345732688904e-01 2.150270080566406250e+01
1.306386470794677734e+01 7.947365194559097290e-02 2.857965660095214844e+01
1.289664077758789062e+01 2.051317989826202393e-01 2.271778869628906250e+01
1.277820205688476562e+01 3.245407044887542725e-01 2.036954689025878906e+01
1.210443973541259766e+01 5.893353819847106934e-01 2.647187614440917969e+01
1.170971965789794922e+01 6.064352989196777344e-01 2.062154197692871094e+01
1.108976745605468750e+01 6.041916012763977051e-01 1.606707954406738281e+01
1.051751327514648438e+01 8.703691363334655762e-01 2.057082366943359375e+01
1.008255863189697266e+01 8.837873339653015137e-01 1.775131797790527344e+01
9.941843032836914062e+00 8.514565229415893555e-01 1.440087413787841797e+01
8.269326210021972656e+00 1.005589365959167480e+00 1.616819190979003906e+01
8.149377822875976562e+00 1.006373286247253418e+00 1.434397506713867188e+01
8.342109680175781250e+00 9.735170602798461914e-01 1.208152484893798828e+01
6.940017700195312500e+00 1.114251971244812012e+00 1.356509685516357422e+01
6.762138366699218750e+00 9.973158836364746094e-01 1.077006816864013672e+01
7.691266536712646484e+00 1.136652946472167969e+00 1.113656902313232422e+01
5.952775001525878906e+00 1.186446666717529297e+00 1.163147544860839844e+01
6.749764442443847656e+00 1.219635486602783203e+00 1.074782085418701172e+01
6.485914707183837891e+00 1.387135028839111328e+00 1.032524776458740234e+01
6.017464160919189453e+00 1.486306428909301758e+00 9.577237129211425781e+00
5.293830394744873047e+00 1.598342895507812500e+00 9.304818153381347656e+00
4.918686389923095703e+00 1.659792184829711914e+00 8.642820358276367188e+00
4.592607498168945312e+00 1.712636470794677734e+00 8.067739486694335938e+00
4.323542118072509766e+00 1.765219330787658691e+00 7.592784881591796875e+00
3.790077686309814453e+00 1.824543595314025879e+00 7.386226654052734375e+00
3.539583444595336914e+00 1.838811278343200684e+00 6.895452976226806641e+00
8.688768386840820312e+00 -5.188228487968444824e-01 1.685967826843261719e+01
1.514354705810546875e+01 -6.253154277801513672e-01 2.395602416992187500e+01
1.561402034759521484e+01 -5.650267601013183594e-01 3.384130859375000000e+01
8.612996101379394531e+00 -1.807428300380706787e-01 1.670773506164550781e+01
1.349081993103027344e+01 -1.074959114193916321e-01 2.133648681640625000e+01
1.317690181732177734e+01 7.870323956012725830e-02 2.854974937438964844e+01
1.289335823059082031e+01 2.031576335430145264e-01 2.251938056945800781e+01
1.279825019836425781e+01 3.226371705532073975e-01 2.023639106750488281e+01
1.211084270477294922e+01 5.842087268829345703e-01 2.623128890991210938e+01
1.186171722412109375e+01 6.098132133483886719e-01 2.071210098266601562e+01
1.106295108795166016e+01 5.991534590721130371e-01 1.590327167510986328e+01
1.059923553466796875e+01 8.703230619430541992e-01 2.054460144042968750e+01
1.013958930969238281e+01 8.826175928115844727e-01 1.770040702819824219e+01
9.943200111389160156e+00 8.467248678207397461e-01 1.429058170318603516e+01
8.312026023864746094e+00 1.003149986267089844e+00 1.610586929321289062e+01
8.175080299377441406e+00 1.002700328826904297e+00 1.426728153228759766e+01
8.361237525939941406e+00 9.703050255775451660e-01 1.201486968994140625e+01
6.975028514862060547e+00 1.111541390419006348e+00 1.351125240325927734e+01
6.786619186401367188e+00 9.948475956916809082e-01 1.072166252136230469e+01
7.717210292816162109e+00 1.134199619293212891e+00 1.108708095550537109e+01
6.008140087127685547e+00 1.188654303550720215e+00 1.163439941406250000e+01
6.791220188140869141e+00 1.219738960266113281e+00 1.072641849517822266e+01
6.525817394256591797e+00 1.387318849563598633e+00 1.030481529235839844e+01
6.040828227996826172e+00 1.483191967010498047e+00 9.536746025085449219e+00
5.311135292053222656e+00 1.593072652816772461e+00 9.256244659423828125e+00
4.942447185516357422e+00 1.656925916671752930e+00 8.611107826232910156e+00
4.622117042541503906e+00 1.712419390678405762e+00 8.050915718078613281e+00
4.340573310852050781e+00 1.760658860206604004e+00 7.558251380920410156e+00
3.809908628463745117e+00 1.820904016494750977e+00 7.358475208282470703e+00
3.566591739654541016e+00 1.839542746543884277e+00 6.885956764221191406e+00
8.718660354614257812e+00 -5.178561210632324219e-01 1.678792762756347656e+01
1.506841659545898438e+01 -6.196659207344055176e-01 2.367216491699218750e+01
1.467516994476318359e+01 -5.282391309738159180e-01 3.154555320739746094e+01
8.670051574707031250e+00 -1.812370568513870239e-01 1.668946456909179688e+01
1.347184944152832031e+01 -1.072854846715927124e-01 2.115903663635253906e+01
1.326399040222167969e+01 7.798739522695541382e-02 2.850277709960937500e+01
1.288909626007080078e+01 2.014677226543426514e-01 2.234883880615234375e+01
1.276399898529052734e+01 3.197389543056488037e-01 2.004259872436523438e+01
1.209529018402099609e+01 5.788797736167907715e-01 2.598284721374511719e+01
1.186277580261230469e+01 6.060695648193359375e-01 2.056391716003417969e+01
1.104289627075195312e+01 5.950449109077453613e-01 1.576857471466064453e+01
8.705576896667480469e+00 7.101100683212280273e-01 1.674483871459960938e+01
1.015718364715576172e+01 8.789262771606445312e-01 1.760272979736328125e+01
9.952504158020019531e+00 8.434090018272399902e-01 1.420858001708984375e+01
8.327552795410156250e+00 9.985679388046264648e-01 1.601238632202148438e+01
8.200885772705078125e+00 1.000059843063354492e+00 1.420870971679687500e+01
8.384041786193847656e+00 9.683294892311096191e-01 1.196732711791992188e+01
6.999932765960693359e+00 1.108450174331665039e+00 1.345568752288818359e+01
6.826682567596435547e+00 9.955472946166992188e-01 1.071041011810302734e+01
7.743980407714843750e+00 1.132791996002197266e+00 1.105139446258544922e+01
6.024414062500000000e+00 1.184400439262390137e+00 1.157663249969482422e+01
6.822725772857666016e+00 1.219118475914001465e+00 1.070171260833740234e+01
6.549590587615966797e+00 1.385282278060913086e+00 1.027090263366699219e+01
6.064338207244873047e+00 1.481417298316955566e+00 9.507737159729003906e+00
5.336205482482910156e+00 1.591678619384765625e+00 9.232713699340820312e+00
4.955626964569091797e+00 1.652119398117065430e+00 8.571680068969726562e+00
4.635547161102294922e+00 1.707881093025207520e+00 8.015977859497070312e+00
4.360344409942626953e+00 1.758901119232177734e+00 7.537845611572265625e+00
3.842016696929931641e+00 1.825021266937255859e+00 7.363845348358154297e+00
3.587280035018920898e+00 1.838917493820190430e+00 6.873050689697265625e+00
8.769929885864257812e+00 -5.177187323570251465e-01 1.673636436462402344e+01
1.505249404907226562e+01 -6.160785555839538574e-01 2.345689010620117188e+01
1.346702766418457031e+01 -4.817861914634704590e-01 2.867326354980468750e+01
8.724663734436035156e+00 -1.815642416477203369e-01 1.664517021179199219e+01
1.347692775726318359e+01 -1.072559952735900879e-01 2.099674606323242188e+01
1.325780200958251953e+01 7.653469592332839966e-02 2.821865272521972656e+01
1.289148139953613281e+01 1.996388137340545654e-01 2.216488265991210938e+01
1.278766536712646484e+01 3.179854452610015869e-01 1.991828536987304688e+01
1.209601783752441406e+01 5.736600756645202637e-01 2.573748970031738281e+01
1.161330986022949219e+01 5.890471935272216797e-01 1.996212577819824219e+01
1.103144264221191406e+01 5.909485816955566406e-01 1.563002395629882812e+01
8.723241806030273438e+00 7.061141133308410645e-01 1.662966346740722656e+01
1.018443107604980469e+01 8.752591013908386230e-01 1.750151824951171875e+01
9.953805923461914062e+00 8.387849926948547363e-01 1.410023403167724609e+01
8.366681098937988281e+00 9.958053827285766602e-01 1.594466018676757812e+01
8.227783203125000000e+00 9.966380596160888672e-01 1.413546180725097656e+01
8.417469978332519531e+00 9.668428301811218262e-01 1.192188167572021484e+01
7.020444869995117188e+00 1.103559970855712891e+00 1.337523174285888672e+01
6.861563682556152344e+00 9.946458935737609863e-01 1.067864418029785156e+01
7.769467353820800781e+00 1.130343437194824219e+00 1.100181579589843750e+01
6.051967144012451172e+00 1.181188344955444336e+00 1.152630233764648438e+01
6.955526351928710938e+00 1.235475659370422363e+00 1.082238578796386719e+01
6.574272155761718750e+00 1.382305979728698730e+00 1.022681999206542969e+01
6.076598167419433594e+00 1.475702404975891113e+00 9.450473785400390625e+00
5.359025001525878906e+00 1.588184237480163574e+00 9.194352149963378906e+00
4.981020927429199219e+00 1.649915099143981934e+00 8.543293952941894531e+00
4.655950069427490234e+00 1.704401969909667969e+00 7.983705043792724609e+00
4.380998611450195312e+00 1.755927920341491699e+00 7.510024547576904297e+00
3.861670732498168945e+00 1.821384310722351074e+00 7.335952281951904297e+00
3.612416267395019531e+00 1.838727355003356934e+00 6.859923362731933594e+00
1.616348266601562500e+01 -9.492293596267700195e-01 3.061172485351562500e+01
1.514347839355468750e+01 -6.173043251037597656e-01 2.343634033203125000e+01
1.355190658569335938e+01 -4.823042452335357666e-01 2.861995697021484375e+01
8.790921211242675781e+00 -1.822490692138671875e-01 1.664419937133789062e+01
1.346791553497314453e+01 -1.071237623691558838e-01 2.083840370178222656e+01
1.326847362518310547e+01 7.540231198072433472e-02 2.801238822937011719e+01
1.287915802001953125e+01 1.978730559349060059e-01 2.198450660705566406e+01
1.277742862701416016e+01 3.157482147216796875e-01 1.976550102233886719e+01
1.212200546264648438e+01 5.704524517059326172e-01 2.558373260498046875e+01
1.168302917480468750e+01 5.889467000961303711e-01 1.993763732910156250e+01
1.099943065643310547e+01 5.862970948219299316e-01 1.548123836517333984e+01
8.801579475402832031e+00 7.078232169151306152e-01 1.665167427062988281e+01
1.021812915802001953e+01 8.730453848838806152e-01 1.743326377868652344e+01
9.981840133666992188e+00 8.371273875236511230e-01 1.404612445831298828e+01
8.399911880493164062e+00 9.934405684471130371e-01 1.588655185699462891e+01
8.246891975402832031e+00 9.932742118835449219e-01 1.406652164459228516e+01
8.434057235717773438e+00 9.642108678817749023e-01 1.186613178253173828e+01
7.054951667785644531e+00 1.102077841758728027e+00 1.333903884887695312e+01
7.665151119232177734e+00 1.105472922325134277e+00 1.184732437133789062e+01
7.776260375976562500e+00 1.126096844673156738e+00 1.093840408325195312e+01
6.091856002807617188e+00 1.181638121604919434e+00 1.151431369781494141e+01
7.074921607971191406e+00 1.250338077545166016e+00 1.093255901336669922e+01
6.598788738250732422e+00 1.380498886108398438e+00 1.019448375701904297e+01
6.103002548217773438e+00 1.474712610244750977e+00 9.426390647888183594e+00
5.381851196289062500e+00 1.586202859878540039e+00 9.167286872863769531e+00
4.983836650848388672e+00 1.641821503639221191e+00 8.486828804016113281e+00
4.674010276794433594e+00 1.701680660247802734e+00 7.957221031188964844e+00
4.405538558959960938e+00 1.756151914596557617e+00 7.497969150543212891e+00
3.889248847961425781e+00 1.823356151580810547e+00 7.332470417022705078e+00
3.632099151611328125e+00 1.837642073631286621e+00 6.845160484313964844e+00
1.599640655517578125e+01 -9.337769746780395508e-01 3.002819061279296875e+01
1.517144107818603516e+01 -6.155593991279602051e-01 2.329186248779296875e+01
1.367913913726806641e+01 -4.839115738868713379e-01 2.861699104309082031e+01
8.865972518920898438e+00 -1.829991191625595093e-01 1.663833808898925781e+01
1.346450138092041016e+01 -1.070253476500511169e-01 2.066657447814941406e+01
1.327096748352050781e+01 7.404717057943344116e-02 2.775427055358886719e+01
1.287215900421142578e+01 1.959554851055145264e-01 2.178907966613769531e+01
1.277444076538085938e+01 3.133925199508666992e-01 1.960294532775878906e+01
1.224070072174072266e+01 5.708917975425720215e-01 2.559146690368652344e+01
1.156784248352050781e+01 5.789971947669982910e-01 1.957626724243164062e+01
1.075466251373291016e+01 5.699416399002075195e-01 1.501987648010253906e+01
8.936830520629882812e+00 7.132939696311950684e-01 1.675864791870117188e+01
1.025652217864990234e+01 8.704239130020141602e-01 1.735272598266601562e+01
9.991365432739257812e+00 8.332889676094055176e-01 1.395100879669189453e+01
8.429868698120117188e+00 9.896922707557678223e-01 1.580283737182617188e+01
8.270942687988281250e+00 9.896174073219299316e-01 1.398984146118164062e+01
8.471664428710937500e+00 9.632577896118164062e-01 1.182706356048583984e+01
7.074663639068603516e+00 1.097195625305175781e+00 1.325857830047607422e+01
7.680182456970214844e+00 1.101108670234680176e+00 1.177577018737792969e+01
7.791903495788574219e+00 1.122316360473632812e+00 1.087585067749023438e+01
6.106796741485595703e+00 1.176082611083984375e+00 1.144099330902099609e+01
7.104044437408447266e+00 1.248146295547485352e+00 1.088992691040039062e+01
6.614366531372070312e+00 1.375720024108886719e+00 1.013699531555175781e+01
6.110391139984130859e+00 1.467961549758911133e+00 9.362499237060546875e+00
5.407326221466064453e+00 1.583597898483276367e+00 9.133939743041992188e+00
5.018901824951171875e+00 1.642911672592163086e+00 8.475356101989746094e+00
4.708127021789550781e+00 1.703281998634338379e+00 7.948559761047363281e+00
4.420968532562255859e+00 1.751202344894409180e+00 7.461596965789794922e+00
3.909615516662597656e+00 1.820150732994079590e+00 7.306176662445068359e+00
3.652540922164916992e+00 1.835146427154541016e+00 6.823290824890136719e+00
1.594547462463378906e+01 -9.252665042877197266e-01 2.966995239257812500e+01
1.514696788787841797e+01 -6.117234230041503906e-01 2.306893920898437500e+01
1.610341835021972656e+01 -5.662900805473327637e-01 3.337368011474609375e+01
8.991288185119628906e+00 -1.847798973321914673e-01 1.672550964355468750e+01
1.346220493316650391e+01 -1.069350987672805786e-01 2.049839210510253906e+01
1.315351486206054688e+01 7.205960154533386230e-02 2.725155830383300781e+01
1.287516021728515625e+01 1.942186504602432251e-01 2.161290168762207031e+01
1.278910064697265625e+01 3.115001916885375977e-01 1.946908950805664062e+01
1.203358364105224609e+01 5.562603473663330078e-01 2.492341423034667969e+01
1.162005805969238281e+01 5.775107145309448242e-01 1.950112915039062500e+01
1.073476505279541016e+01 5.656281113624572754e-01 1.487663364410400391e+01
9.025637626647949219e+00 7.150086760520935059e-01 1.677684974670410156e+01
1.025251865386962891e+01 8.642712831497192383e-01 1.720176887512207031e+01
1.001435661315917969e+01 8.306191563606262207e-01 1.387545108795166016e+01
8.465946197509765625e+00 9.867210984230041504e-01 1.573142623901367188e+01
8.303743362426757812e+00 9.870586395263671875e-01 1.392860507965087891e+01
8.498585700988769531e+00 9.611181020736694336e-01 1.177331733703613281e+01
7.116572856903076172e+00 1.095811963081359863e+00 1.322030639648437500e+01
7.711222171783447266e+00 1.099089980125427246e+00 1.172925567626953125e+01
7.835193634033203125e+00 1.122550725936889648e+00 1.085210800170898438e+01
6.150556564331054688e+00 1.176129341125488281e+00 1.142208576202392578e+01
7.137324810028076172e+00 1.246721386909484863e+00 1.085388278961181641e+01
6.650360107421875000e+00 1.375234961509704590e+00 1.011107540130615234e+01
6.143550395965576172e+00 1.467461824417114258e+00 9.338438034057617188e+00
5.426545143127441406e+00 1.579224348068237305e+00 9.090338706970214844e+00
5.033721923828125000e+00 1.637422680854797363e+00 8.429864883422851562e+00
4.730139255523681641e+00 1.700532793998718262e+00 7.919492721557617188e+00
4.446246623992919922e+00 1.750212669372558594e+00 7.442041397094726562e+00
3.946544647216796875e+00 1.824669480323791504e+00 7.310772895812988281e+00
3.676569700241088867e+00 1.834497570991516113e+00 6.808212280273437500e+00
1.604268646240234375e+01 -9.254204630851745605e-01 2.959019088745117188e+01
1.511334133148193359e+01 -6.075650453567504883e-01 2.283483695983886719e+01
1.594805622100830078e+01 -5.575306415557861328e-01 3.274449539184570312e+01
9.042996406555175781e+00 -1.850433945655822754e-01 1.667485809326171875e+01
1.345444297790527344e+01 -1.068007498979568481e-01 2.032383918762207031e+01
1.328833961486816406e+01 7.147692143917083740e-02 2.727508735656738281e+01
1.286468601226806641e+01 1.923069059848785400e-01 2.141642379760742188e+01
1.277093315124511719e+01 3.088409006595611572e-01 1.928703880310058594e+01
1.071533966064453125e+01 4.909724593162536621e-01 2.198698806762695312e+01
1.170585727691650391e+01 5.777057409286499023e-01 1.948242378234863281e+01
1.071984100341796875e+01 5.616298317909240723e-01 1.474182033538818359e+01
1.090408325195312500e+01 8.574286699295043945e-01 2.009171867370605469e+01
1.026298618316650391e+01 8.594199419021606445e-01 1.707676315307617188e+01
1.002517986297607422e+01 8.269840478897094727e-01 1.378375720977783203e+01
8.497803688049316406e+00 9.833133220672607422e-01 1.565294361114501953e+01
8.319751739501953125e+00 9.825598597526550293e-01 1.383994197845458984e+01
8.528747558593750000e+00 9.593772888183593750e-01 1.172437381744384766e+01
7.135450363159179688e+00 1.090938210487365723e+00 1.313983440399169922e+01
7.739821910858154297e+00 1.096761822700500488e+00 1.167934799194335938e+01
7.854961872100830078e+00 1.119444489479064941e+00 1.079596328735351562e+01
6.227536201477050781e+00 1.182496070861816406e+00 1.146426963806152344e+01
7.159437179565429688e+00 1.243388175964355469e+00 1.080114650726318359e+01
6.663192272186279297e+00 1.370010137557983398e+00 1.005024528503417969e+01
6.159080505371093750e+00 1.462798953056335449e+00 9.287817955017089844e+00
5.450618267059326172e+00 1.576328635215759277e+00 9.055193901062011719e+00
5.069644927978515625e+00 1.638844490051269531e+00 8.419868469238281250e+00
4.750988006591796875e+00 1.697422862052917480e+00 7.888685703277587891e+00
4.467393875122070312e+00 1.747641205787658691e+00 7.415683269500732422e+00
3.953663825988769531e+00 1.815460562705993652e+00 7.260298252105712891e+00
3.703329801559448242e+00 1.835234045982360840e+00 6.798176288604736328e+00
1.597456359863281250e+01 -9.168728590011596680e-01 2.924485588073730469e+01
1.502423191070556641e+01 -6.016248464584350586e-01 2.254596328735351562e+01
1.598915767669677734e+01 -5.561772584915161133e-01 3.256856155395507812e+01
1.437226104736328125e+01 -2.930194735527038574e-01 2.630423355102539062e+01
1.345499706268310547e+01 -1.067422479391098022e-01 2.018660926818847656e+01
1.325317573547363281e+01 7.017727196216583252e-02 2.698727035522460938e+01
1.286150169372558594e+01 1.907777637243270874e-01 2.125955009460449219e+01
1.277820587158203125e+01 3.071405887603759766e-01 1.916696357727050781e+01
1.075613689422607422e+01 4.891574084758758545e-01 2.189580345153808594e+01
1.193778419494628906e+01 5.856432914733886719e-01 1.972781372070312500e+01
1.070469093322753906e+01 5.581204295158386230e-01 1.462420940399169922e+01
1.096905231475830078e+01 8.571074604988098145e-01 2.006089973449707031e+01
1.029173660278320312e+01 8.569656014442443848e-01 1.700344085693359375e+01
1.003537750244140625e+01 8.239829540252685547e-01 1.370709133148193359e+01
8.523921966552734375e+00 9.803014397621154785e-01 1.558415412902832031e+01
8.343528747558593750e+00 9.799393415451049805e-01 1.378132152557373047e+01
8.560808181762695312e+00 9.586042761802673340e-01 1.169111347198486328e+01
7.162317752838134766e+00 1.088447809219360352e+00 1.309113883972167969e+01
7.758752346038818359e+00 1.094010710716247559e+00 1.162847328186035156e+01
7.874691009521484375e+00 1.117213845252990723e+00 1.075197410583496094e+01
6.254898071289062500e+00 1.180603027343750000e+00 1.142896080017089844e+01
7.188895702362060547e+00 1.242388844490051270e+00 1.077201747894287109e+01
6.699125289916992188e+00 1.370694160461425781e+00 1.003591728210449219e+01
6.183802604675292969e+00 1.461555600166320801e+00 9.261871337890625000e+00
5.467735767364501953e+00 1.572878718376159668e+00 9.019468307495117188e+00
5.075590610504150391e+00 1.632075667381286621e+00 8.370214462280273438e+00
4.768582344055175781e+00 1.694706916809082031e+00 7.862002372741699219e+00
4.482509136199951172e+00 1.744307637214660645e+00 7.388257980346679688e+00
3.974548101425170898e+00 1.814432740211486816e+00 7.244473457336425781e+00
3.717151641845703125e+00 1.831384301185607910e+00 6.772917747497558594e+00
1.572466945648193359e+01 -8.973001241683959961e-01 2.853819847106933594e+01
1.499193763732910156e+01 -5.976189374923706055e-01 2.231976318359375000e+01
1.609954261779785156e+01 -5.567874908447265625e-01 3.249180221557617188e+01
1.433149528503417969e+01 -2.909540534019470215e-01 2.600266075134277344e+01
1.344747352600097656e+01 -1.066085696220397949e-01 2.001597023010253906e+01
1.303047275543212891e+01 6.774564832448959351e-02 2.628982925415039062e+01
1.285601043701171875e+01 1.889929473400115967e-01 2.107568740844726562e+01
1.277363014221191406e+01 3.048710227012634277e-01 1.900880432128906250e+01
1.083452796936035156e+01 4.884607493877410889e-01 2.185267066955566406e+01
1.192877101898193359e+01 5.811663866043090820e-01 1.955082511901855469e+01
1.068700790405273438e+01 5.540735721588134766e-01 1.448837471008300781e+01
1.089383888244628906e+01 8.450297713279724121e-01 1.975108718872070312e+01
1.032170200347900391e+01 8.538485765457153320e-01 1.691276359558105469e+01
1.005706977844238281e+01 8.213253021240234375e-01 1.363166809082031250e+01
8.548165321350097656e+00 9.761310219764709473e-01 1.549339485168457031e+01
8.370042800903320312e+00 9.767845273017883301e-01 1.371149539947509766e+01
8.581068992614746094e+00 9.558123350143432617e-01 1.162918376922607422e+01
7.182280540466308594e+00 1.083872914314270020e+00 1.301419448852539062e+01
7.794624328613281250e+00 1.092780113220214844e+00 1.159007072448730469e+01
7.911659240722656250e+00 1.116618633270263672e+00 1.071987438201904297e+01
6.296723365783691406e+00 1.180291533470153809e+00 1.140600395202636719e+01
7.213861465454101562e+00 1.239633560180664062e+00 1.072416687011718750e+01
6.713654041290283203e+00 1.365925788879394531e+00 9.978372573852539062e+00
6.207717895507812500e+00 1.458979129791259766e+00 9.224391937255859375e+00
5.493508815765380859e+00 1.570576786994934082e+00 8.987609863281250000e+00
5.109293937683105469e+00 1.632842063903808594e+00 8.356663703918457031e+00
4.795285224914550781e+00 1.693775177001953125e+00 7.841178417205810547e+00
4.505436420440673828e+00 1.742530584335327148e+00 7.365153312683105469e+00
4.012393951416015625e+00 1.819382190704345703e+00 7.250434398651123047e+00
3.752288103103637695e+00 1.836273670196533203e+00 6.778043270111083984e+00
1.567064666748046875e+01 -8.898113965988159180e-01 2.822993087768554688e+01
1.499926090240478516e+01 -5.956118106842041016e-01 2.217978668212890625e+01
1.605858230590820312e+01 -5.526503324508666992e-01 3.215480422973632812e+01
1.434127044677734375e+01 -2.901072204113006592e-01 2.582811737060546875e+01
1.344417572021484375e+01 -1.065184772014617920e-01 1.987588500976562500e+01
1.309601116180419922e+01 6.702554225921630859e-02 2.621477317810058594e+01
1.284154415130615234e+01 1.873424947261810303e-01 2.090399169921875000e+01
1.276716041564941406e+01 3.028906583786010742e-01 1.887086868286132812e+01
1.093350791931152344e+01 4.892944693565368652e-01 2.187935638427734375e+01
1.195243930816650391e+01 5.789011716842651367e-01 1.945194816589355469e+01
1.067764472961425781e+01 5.509442090988159180e-01 1.438091754913330078e+01
1.105774688720703125e+01 8.524267673492431641e-01 1.990022850036621094e+01
1.033396530151367188e+01 8.501110672950744629e-01 1.681389045715332031e+01
1.007720088958740234e+01 8.192026019096374512e-01 1.356956100463867188e+01
8.586108207702636719e+00 9.745584726333618164e-01 1.544729614257812500e+01
8.398424148559570312e+00 9.747771620750427246e-01 1.366135501861572266e+01
8.608027458190917969e+00 9.545155167579650879e-01 1.158938312530517578e+01
7.208573818206787109e+00 1.081388354301452637e+00 1.296545219421386719e+01
7.810857295989990234e+00 1.089721679687500000e+00 1.153584289550781250e+01
7.914379596710205078e+00 1.112054109573364258e+00 1.065340518951416016e+01
6.352837562561035156e+00 1.183814048767089844e+00 1.142275810241699219e+01
7.234101295471191406e+00 1.237110376358032227e+00 1.068171024322509766e+01
6.731574058532714844e+00 1.363001823425292969e+00 9.937531471252441406e+00
6.218848228454589844e+00 1.454616546630859375e+00 9.178624153137207031e+00
5.513398170471191406e+00 1.568015456199645996e+00 8.956880569458007812e+00
5.114810943603515625e+00 1.626077294349670410e+00 8.307024955749511719e+00
4.807493686676025391e+00 1.689249634742736816e+00 7.806030750274658203e+00
4.508989810943603516e+00 1.734848022460937500e+00 7.319303512573242188e+00
4.024662494659423828e+00 1.814495801925659180e+00 7.219081401824951172e+00
3.770693778991699219e+00 1.834732174873352051e+00 6.761180400848388672e+00
1.571638965606689453e+01 -8.873239755630493164e-01 2.806935691833496094e+01
1.497234725952148438e+01 -5.918967723846435547e-01 2.196603202819824219e+01
1.459136867523193359e+01 -4.993144273757934570e-01 2.895096397399902344e+01
1.436059093475341797e+01 -2.892922163009643555e-01 2.564101791381835938e+01
1.343581676483154297e+01 -1.063770204782485962e-01 1.970749664306640625e+01
1.321000671386718750e+01 6.638132780790328979e-02 2.620232009887695312e+01
1.285383033752441406e+01 1.858661621809005737e-01 2.075307464599609375e+01
1.277877140045166016e+01 3.010614514350891113e-01 1.873969650268554688e+01
8.450192451477050781e+00 3.749406635761260986e-01 1.675609016418457031e+01
1.197625827789306641e+01 5.761123895645141602e-01 1.933154869079589844e+01
1.064643764495849609e+01 5.462955832481384277e-01 1.422966194152832031e+01
1.110616588592529297e+01 8.500172495841979980e-01 1.981601142883300781e+01
1.034182834625244141e+01 8.452835083007812500e-01 1.668931198120117188e+01
1.007658386230468750e+01 8.148103356361389160e-01 1.346539115905761719e+01
8.617258071899414062e+00 9.712775945663452148e-01 1.537047100067138672e+01
8.424230575561523438e+00 9.716295003890991211e-01 1.359149265289306641e+01
8.632491111755371094e+00 9.522570967674255371e-01 1.153382492065429688e+01
7.237488269805908203e+00 1.078274965286254883e+00 1.290592765808105469e+01
7.846323013305664062e+00 1.088495612144470215e+00 1.149729728698730469e+01
7.935437202453613281e+00 1.109292507171630859e+00 1.060043525695800781e+01
6.410232067108154297e+00 1.186389923095703125e+00 1.142723655700683594e+01
7.273180961608886719e+00 1.236841440200805664e+00 1.065517044067382812e+01
6.758964061737060547e+00 1.360946655273437500e+00 9.899712562561035156e+00
6.243475914001464844e+00 1.452304482460021973e+00 9.142721176147460938e+00
5.534689426422119141e+00 1.564537525177001953e+00 8.918182373046875000e+00
5.139993190765380859e+00 1.624215960502624512e+00 8.279902458190917969e+00
4.826704978942871094e+00 1.685783982276916504e+00 7.773381710052490234e+00
4.540929794311523438e+00 1.736634492874145508e+00 7.311119079589843750e+00
4.050106525421142578e+00 1.813871383666992188e+00 7.202645778656005859e+00
3.791602134704589844e+00 1.832704186439514160e+00 6.740596771240234375e+00
1.580245971679687500e+01 -8.871453404426574707e-01 2.798194313049316406e+01
1.463384151458740234e+01 -5.759605169296264648e-01 2.130120658874511719e+01
1.472548675537109375e+01 -5.010800957679748535e-01 2.895253181457519531e+01
1.439840602874755859e+01 -2.888612151145935059e-01 2.548895072937011719e+01
1.343773078918457031e+01 -1.063162609934806824e-01 1.955592155456542969e+01
8.513012886047363281e+00 4.200150072574615479e-02 1.673289871215820312e+01
1.285035324096679688e+01 1.841855943202972412e-01 2.057860755920410156e+01
1.277939701080322266e+01 2.990008890628814697e-01 1.859386062622070312e+01
8.513354301452636719e+00 3.745521306991577148e-01 1.672858619689941406e+01
1.198558712005615234e+01 5.726724863052368164e-01 1.918919563293457031e+01
1.064556026458740234e+01 5.432512760162353516e-01 1.412033271789550781e+01
1.118066883087158203e+01 8.496306538581848145e-01 1.977868652343750000e+01
1.034997558593750000e+01 8.405488729476928711e-01 1.656659889221191406e+01
1.009939289093017578e+01 8.123582005500793457e-01 1.339331054687500000e+01
8.654841423034667969e+00 9.687713384628295898e-01 1.530579280853271484e+01
8.450697898864746094e+00 9.686071276664733887e-01 1.352331542968750000e+01
8.668681144714355469e+00 9.513204097747802734e-01 1.149417877197265625e+01
7.263117790222167969e+00 1.074729084968566895e+00 1.284115695953369141e+01
7.875960350036621094e+00 1.086492300033569336e+00 1.145043087005615234e+01
7.971816062927246094e+00 1.108703851699829102e+00 1.056814002990722656e+01
6.457936763763427734e+00 1.187162756919860840e+00 1.141411018371582031e+01
7.288466453552246094e+00 1.232566475868225098e+00 1.059404277801513672e+01
6.777154922485351562e+00 1.357088923454284668e+00 9.848731040954589844e+00
6.253308773040771484e+00 1.446613192558288574e+00 9.085528373718261719e+00
5.564164638519287109e+00 1.563420295715332031e+00 8.892863273620605469e+00
5.165046215057373047e+00 1.622356295585632324e+00 8.252705574035644531e+00
4.847830295562744141e+00 1.683044910430908203e+00 7.744029998779296875e+00
4.553100109100341797e+00 1.730906128883361816e+00 7.271227359771728516e+00
4.062956333160400391e+00 1.807674050331115723e+00 7.164029598236083984e+00
3.802807569503784180e+00 1.826066374778747559e+00 6.703024387359619141e+00
1.560114955902099609e+01 -8.709422349929809570e-01 2.739048576354980469e+01
1.461734867095947266e+01 -5.727915167808532715e-01 2.111096763610839844e+01
8.581327438354492188e+00 -2.903859019279479980e-01 1.672023200988769531e+01
1.437589931488037109e+01 -2.872345745563507080e-01 2.523269271850585938e+01
1.123650646209716797e+01 -8.883662521839141846e-02 1.622475624084472656e+01
8.591634750366210938e+00 4.161905497312545776e-02 1.673539352416992188e+01
1.284790229797363281e+01 1.825448274612426758e-01 2.040782928466796875e+01
1.113704013824462891e+01 2.587908506393432617e-01 1.607771492004394531e+01
8.561812400817871094e+00 3.735278248786926270e-01 1.667238235473632812e+01
1.199722862243652344e+01 5.693922042846679688e-01 1.905210494995117188e+01
1.062588214874267578e+01 5.392920374870300293e-01 1.398732471466064453e+01
1.111349391937255859e+01 8.385655283927917480e-01 1.949279785156250000e+01
1.038505077362060547e+01 8.380552530288696289e-01 1.648800849914550781e+01
1.009522056579589844e+01 8.077823519706726074e-01 1.328624916076660156e+01
8.685141563415527344e+00 9.654991626739501953e-01 1.522890377044677734e+01
8.471456527709960938e+00 9.649823904037475586e-01 1.344668292999267578e+01
8.687790870666503906e+00 9.485403895378112793e-01 1.143217563629150391e+01
7.292323589324951172e+00 1.071767807006835938e+00 1.278330421447753906e+01
7.893999576568603516e+00 1.082933306694030762e+00 1.138711643218994141e+01
7.994798183441162109e+00 1.106281280517578125e+00 1.051826572418212891e+01
6.534257411956787109e+00 1.193164229393005371e+00 1.145095920562744141e+01
7.315880775451660156e+00 1.230393767356872559e+00 1.055094337463378906e+01
6.806387424468994141e+00 1.355489373207092285e+00 9.814078330993652344e+00
6.276369571685791016e+00 1.444045543670654297e+00 9.047936439514160156e+00
5.584030151367187500e+00 1.559651613235473633e+00 8.852389335632324219e+00
5.178387165069580078e+00 1.616882443428039551e+00 8.207084655761718750e+00
4.877202033996582031e+00 1.683205962181091309e+00 7.727934837341308594e+00
4.577597618103027344e+00 1.729925990104675293e+00 7.251238346099853516e+00
4.091096401214599609e+00 1.808338522911071777e+00 7.152547359466552734e+00
3.807989358901977539e+00 1.816664099693298340e+00 6.655324459075927734e+00
8.700627326965332031e+00 -6.288893222808837891e-01 1.682728958129882812e+01
1.557072257995605469e+01 -8.651065230369567871e-01 2.713842391967773438e+01
1.459212875366210938e+01 -5.696719288825988770e-01 2.093370056152343750e+01
8.621870994567871094e+00 -2.903822958469390869e-01 1.667008972167968750e+01
1.418731880187988281e+01 -2.824848890304565430e-01 2.472080421447753906e+01
1.122908401489257812e+01 -8.872264623641967773e-02 1.610570526123046875e+01
8.649680137634277344e+00 4.124634712934494019e-02 1.671898078918457031e+01
1.284127140045166016e+01 1.810941100120544434e-01 2.025589179992675781e+01
1.116689872741699219e+01 2.579714357852935791e-01 1.601313209533691406e+01
8.665606498718261719e+00 3.753597140312194824e-01 1.674486541748046875e+01
1.200669002532958984e+01 5.665937066078186035e-01 1.893498229980468750e+01
1.060419178009033203e+01 5.356933474540710449e-01 1.386813926696777344e+01
1.122044849395751953e+01 8.415498733520507812e-01 1.953754043579101562e+01
1.041537952423095703e+01 8.359705209732055664e-01 1.642157936096191406e+01
1.010777282714843750e+01 8.051903247833251953e-01 1.321641254425048828e+01
8.693135261535644531e+00 9.607504606246948242e-01 1.513230991363525391e+01
8.490116119384765625e+00 9.620174169540405273e-01 1.338294887542724609e+01
8.716373443603515625e+00 9.475156664848327637e-01 1.139534568786621094e+01
7.311560153961181641e+00 1.068423390388488770e+00 1.272404575347900391e+01
7.921729087829589844e+00 1.081599354743957520e+00 1.135084915161132812e+01
8.005988121032714844e+00 1.103062868118286133e+00 1.046464061737060547e+01
6.577130794525146484e+00 1.194161772727966309e+00 1.144250106811523438e+01
7.335298061370849609e+00 1.227879166603088379e+00 1.050835800170898438e+01
6.812137603759765625e+00 1.350318670272827148e+00 9.756842613220214844e+00
6.293388843536376953e+00 1.441252112388610840e+00 9.011960983276367188e+00
5.604365348815917969e+00 1.557391762733459473e+00 8.823165893554687500e+00
5.196715831756591797e+00 1.614399313926696777e+00 8.179169654846191406e+00
4.885607242584228516e+00 1.677600264549255371e+00 7.687726974487304688e+00
4.589813232421875000e+00 1.725810289382934570e+00 7.220331192016601562e+00
4.106693744659423828e+00 1.805173039436340332e+00 7.127867698669433594e+00
3.823022365570068359e+00 1.813744544982910156e+00 6.633268833160400391e+00
8.738212585449218750e+00 -6.276296377182006836e-01 1.674918937683105469e+01
1.567209529876708984e+01 -8.659455776214599609e-01 2.708460617065429688e+01
1.460439491271972656e+01 -5.676904320716857910e-01 2.078843688964843750e+01
8.692165374755859375e+00 -2.911547124385833740e-01 1.665609741210937500e+01
1.423575305938720703e+01 -2.823138833045959473e-01 2.459593582153320312e+01
1.124549388885498047e+01 -8.878716081380844116e-02 1.600389099121093750e+01
8.711821556091308594e+00 4.078684747219085693e-02 1.668894195556640625e+01
1.283679866790771484e+01 1.794708371162414551e-01 2.008568191528320312e+01
1.124965476989746094e+01 2.581274509429931641e-01 1.600646591186523438e+01
