# .PCD v0.7 - Point Cloud Data file format
VERSION 0.7
FIELDS x y z
SIZE 4 4 4
TYPE F F F
COUNT 1 1 1
WIDTH 636
HEIGHT 1
VIEWPOINT 0 0 0 1 0 0 0
POINTS 636
DATA ascii
6.500685691833496094e+00 1.158357858657836914e+00 1.204022789001464844e+01
4.891984462738037109e+00 1.259706616401672363e+00 1.285292625427246094e+01
5.538041114807128906e+00 1.229036808013916016e+00 1.142296314239501953e+01
5.378363132476806641e+00 1.411036491394042969e+00 1.109013175964355469e+01
5.235797882080078125e+00 1.584984183311462402e+00 1.079278659820556641e+01
4.465016841888427734e+00 1.688892245292663574e+00 1.033032703399658203e+01
4.083291530609130859e+00 1.725133061408996582e+00 9.443370819091796875e+00
3.766192197799682617e+00 1.757490515708923340e+00 8.706947326660156250e+00
3.455425977706909180e+00 1.764617800712585449e+00 7.985301494598388672e+00
2.887186765670776367e+00 1.784991860389709473e+00 7.558818817138671875e+00
2.703157186508178711e+00 1.802772879600524902e+00 7.073443889617919922e+00
2.528819561004638672e+00 1.809051513671875000e+00 6.613566875457763672e+00
5.666728496551513672e+00 -9.818418025970458984e-01 1.477837371826171875e+01
5.673083305358886719e+00 -7.017859816551208496e-01 1.478973770141601562e+01
5.680795669555664062e+00 -4.212428629398345947e-01 1.480385589599609375e+01
1.654276084899902344e+01 -8.051041364669799805e-01 3.387598419189453125e+01
1.403320312500000000e+01 -6.340813636779785156e-01 4.194628524780273438e+01
5.688165187835693359e+00 -1.401134133338928223e-01 1.481706809997558594e+01
1.357037544250488281e+01 -1.097805649042129517e-01 2.778048896789550781e+01
1.106008148193359375e+01 1.159542500972747803e-01 3.304398345947265625e+01
1.210120582580566406e+01 2.600508928298950195e-01 2.779920005798339844e+01
1.262342739105224609e+01 4.077869653701782227e-01 2.583389663696289062e+01
1.107313919067382812e+01 7.338962554931640625e-01 3.306752777099609375e+01
1.174983787536621094e+01 7.739355564117431641e-01 2.698251152038574219e+01
8.687966346740722656e+00 5.742164850234985352e-01 1.596393871307373047e+01
5.691675662994384766e+00 6.098329424858093262e-01 1.481025981903076172e+01
8.900475502014160156e+00 9.809851050376892090e-01 2.043198585510253906e+01
8.869851112365722656e+00 9.146440029144287109e-01 1.629363632202148438e+01
5.696345806121826172e+00 8.910759687423706055e-01 1.481566810607910156e+01
7.160339355468750000e+00 1.106428146362304688e+00 1.643152618408203125e+01
7.607511043548583984e+00 1.065155267715454102e+00 1.397148323059082031e+01
5.511363506317138672e+00 1.134410977363586426e+00 1.432875442504882812e+01
6.117121696472167969e+00 1.101299166679382324e+00 1.250444889068603516e+01
6.534265518188476562e+00 1.156172871589660645e+00 1.199711322784423828e+01
4.929023265838623047e+00 1.256768465042114258e+00 1.280893325805664062e+01
5.558849334716796875e+00 1.224089741706848145e+00 1.135971832275390625e+01
5.405845642089843750e+00 1.407311677932739258e+00 1.104362583160400391e+01
5.258725643157958984e+00 1.579702615737915039e+00 1.073974800109863281e+01
4.499654769897460938e+00 1.687404513359069824e+00 1.030670452117919922e+01
4.117056846618652344e+00 1.724527597427368164e+00 9.426598548889160156e+00
3.794900417327880859e+00 1.755780100822448730e+00 8.685940742492675781e+00
3.484640598297119141e+00 1.764385461807250977e+00 7.972647190093994141e+00
2.910620689392089844e+00 1.782181143760681152e+00 7.537320137023925781e+00
2.726229667663574219e+00 1.800708889961242676e+00 7.056294441223144531e+00
2.550217390060424805e+00 1.806873679161071777e+00 6.597090244293212891e+00
5.736020088195800781e+00 -9.848850965499877930e-01 1.479655551910400391e+01
5.733762264251708984e+00 -7.030251622200012207e-01 1.478558731079101562e+01
5.742973804473876953e+00 -4.222700893878936768e-01 1.480342483520507812e+01
1.646261596679687500e+01 -7.961838245391845703e-01 3.340079116821289062e+01
1.412783908843994141e+01 -6.327250003814697266e-01 4.172028732299804688e+01
5.754734516143798828e+00 -1.408572196960449219e-01 1.482781219482421875e+01
1.367740726470947266e+01 -1.106070280075073242e-01 2.774132537841796875e+01
1.254609966278076172e+01 1.289728432893753052e-01 3.703226470947265625e+01
1.222715282440185547e+01 2.597561478614807129e-01 2.780959701538085938e+01
1.257737350463867188e+01 4.025568962097167969e-01 2.550230407714843750e+01
1.109732246398925781e+01 7.265368700027465820e-01 3.274079132080078125e+01
1.175043487548828125e+01 7.667438387870788574e-01 2.671602058410644531e+01
8.729089736938476562e+00 5.726444721221923828e-01 1.590046882629394531e+01
5.759658813476562500e+00 6.108489036560058594e-01 1.482471752166748047e+01
8.969651222229003906e+00 9.797762036323547363e-01 2.038646125793457031e+01
8.729500770568847656e+00 8.937238454818725586e-01 1.589685630798339844e+01
5.758550643920898438e+00 8.918658494949340820e-01 1.481519699096679688e+01
7.214061737060546875e+00 1.104965329170227051e+00 1.639059829711914062e+01
7.633669853210449219e+00 1.061301231384277344e+00 1.389807128906250000e+01
5.552257061004638672e+00 1.131625652313232422e+00 1.427875614166259766e+01
6.177896976470947266e+00 1.103627443313598633e+00 1.251237773895263672e+01
6.549383640289306641e+00 1.150786995887756348e+00 1.192072772979736328e+01
4.963638782501220703e+00 1.253286600112915039e+00 1.275927352905273438e+01
5.584558486938476562e+00 1.220302104949951172e+00 1.130718612670898438e+01
5.433059692382812500e+00 1.403589963912963867e+00 1.099706840515136719e+01
5.296268939971923828e+00 1.578876137733459473e+00 1.071690368652343750e+01
4.530987262725830078e+00 1.684731483459472656e+00 1.027572631835937500e+01
4.154734134674072266e+00 1.725576519966125488e+00 9.418725967407226562e+00
3.832238435745239258e+00 1.758077383041381836e+00 8.684630393981933594e+00
3.513017177581787109e+00 1.763756513595581055e+00 7.958093643188476562e+00
2.944588899612426758e+00 1.785832643508911133e+00 7.543040752410888672e+00
2.752043724060058594e+00 1.800498247146606445e+00 7.046320438385009766e+00
2.575760364532470703e+00 1.807666778564453125e+00 6.591373920440673828e+00
5.806978225708007812e+00 -9.881769418716430664e-01 1.481814479827880859e+01
5.863034725189208984e+00 -7.125951051712036133e-01 1.495604991912841797e+01
1.655108833312988281e+01 -7.954970002174377441e-01 3.327217102050781250e+01
1.413153743743896484e+01 -6.273814439773559570e-01 4.123310089111328125e+01
1.356757736206054688e+01 -3.300181031227111816e-01 3.458228683471679688e+01
1.362306880950927734e+01 -1.101269870996475220e-01 2.737765884399414062e+01
5.380169868469238281e+00 5.423537641763687134e-02 1.569116210937500000e+01
6.148261070251464844e+00 1.291341036558151245e-01 1.384574699401855469e+01
1.207815647125244141e+01 3.830461502075195312e-01 2.426551055908203125e+01
1.014280605316162109e+01 6.560406684875488281e-01 2.956781768798828125e+01
1.172651290893554688e+01 7.580987811088562012e-01 2.639873123168945312e+01
1.073863124847412109e+01 6.992784142494201660e-01 1.939217567443847656e+01
5.821978569030761719e+00 6.112508177757263184e-01 1.482399272918701172e+01
9.019949913024902344e+00 9.765501022338867188e-01 2.029870986938476562e+01
8.780914306640625000e+00 8.926021456718444824e-01 1.585255527496337891e+01
5.817906379699707031e+00 8.922081589698791504e-01 1.480703449249267578e+01
7.246498584747314453e+00 1.100304365158081055e+00 1.630207061767578125e+01
7.677768230438232422e+00 1.059988021850585938e+00 1.385781955718994141e+01
5.597237110137939453e+00 1.129727363586425781e+00 1.423978900909423828e+01
6.338405609130859375e+00 1.123610138893127441e+00 1.271989154815673828e+01
6.581418037414550781e+00 1.148439526557922363e+00 1.187576866149902344e+01
4.988481521606445312e+00 1.247438311576843262e+00 1.268543624877929688e+01
5.609068393707275391e+00 1.216325283050537109e+00 1.125283527374267578e+01
5.461778163909912109e+00 1.400325417518615723e+00 1.095401573181152344e+01
5.327521324157714844e+00 1.576218366622924805e+00 1.068150997161865234e+01
4.563762664794921875e+00 1.682654023170471191e+00 1.024827194213867188e+01
4.185184955596923828e+00 1.723650693893432617e+00 9.394489288330078125e+00
3.861611843109130859e+00 1.756733417510986328e+00 8.665202140808105469e+00
3.546122312545776367e+00 1.765512824058532715e+00 7.954179763793945312e+00
2.967167615890502930e+00 1.782593369483947754e+00 7.519544601440429688e+00
2.783537149429321289e+00 1.803992867469787598e+00 7.050730228424072266e+00
2.604855060577392578e+00 1.810935020446777344e+00 6.594571113586425781e+00
5.858651638031005859e+00 -9.894228577613830566e-01 1.481279277801513672e+01
5.887211322784423828e+00 -7.102274894714355469e-01 1.487994003295898438e+01
5.884814262390136719e+00 -4.260717034339904785e-01 1.486806678771972656e+01
1.632215881347656250e+01 -7.803586721420288086e-01 3.255504989624023438e+01
1.405948352813720703e+01 -6.195802688598632812e-01 4.060644912719726562e+01
6.183166980743408203e+00 -1.496042311191558838e-01 1.561575126647949219e+01
1.352699661254882812e+01 -1.093147695064544678e-01 2.697181129455566406e+01
1.262176513671875000e+01 1.251256018877029419e-01 3.643766021728515625e+01
1.244638633728027344e+01 2.588907778263092041e-01 2.779328155517578125e+01
1.207899379730224609e+01 3.800921440124511719e-01 2.407731246948242188e+01
1.023497676849365234e+01 6.552247405052185059e-01 2.953393936157226562e+01
1.173090553283691406e+01 7.524115443229675293e-01 2.618662452697753906e+01
1.079851436614990234e+01 6.987638473510742188e-01 1.935661888122558594e+01
9.106535911560058594e+00 9.479299783706665039e-01 2.297486114501953125e+01
9.057510375976562500e+00 9.732373952865600586e-01 2.021195602416992188e+01
9.423457145690917969e+00 9.521282911300659180e-01 1.688724327087402344e+01
5.890143871307373047e+00 8.957486152648925781e-01 1.485368156433105469e+01
7.280510902404785156e+00 1.097315788269042969e+00 1.624100685119628906e+01
7.700825214385986328e+00 1.056862354278564453e+00 1.379707336425781250e+01
5.642661571502685547e+00 1.129511713981628418e+00 1.422402572631835938e+01
6.423058509826660156e+00 1.131183743476867676e+00 1.278903579711914062e+01
6.611876964569091797e+00 1.146983265876770020e+00 1.184288978576660156e+01
5.015065670013427734e+00 1.243834972381591797e+00 1.263641929626464844e+01
5.608627319335937500e+00 1.208353281021118164e+00 1.116404438018798828e+01
5.482759475708007812e+00 1.396652817726135254e+00 1.091021537780761719e+01
5.341436386108398438e+00 1.570202112197875977e+00 1.062579536437988281e+01
4.584567546844482422e+00 1.678247451782226562e+00 1.020867633819580078e+01
4.208186626434326172e+00 1.720773696899414062e+00 9.366954803466796875e+00
3.892014503479003906e+00 1.757975220680236816e+00 8.660258293151855469e+00
3.571068048477172852e+00 1.765315890312194824e+00 7.943055152893066406e+00
2.991473197937011719e+00 1.782832384109497070e+00 7.512056350708007812e+00
2.797006368637084961e+00 1.798257231712341309e+00 7.020316600799560547e+00
2.619075536727905273e+00 1.806313157081604004e+00 6.570211410522460938e+00
1.618680572509765625e+01 -7.691734433174133301e-01 3.199185180664062500e+01
5.439166545867919922e+00 -2.376605272293090820e-01 1.552505397796630859e+01
1.350764942169189453e+01 -3.248311877250671387e-01 3.375198745727539062e+01
1.360408306121826172e+01 -1.098947674036026001e-01 2.687922286987304688e+01
1.196600151062011719e+01 1.163416057825088501e-01 3.413948059082031250e+01
1.256629085540771484e+01 2.584617137908935547e-01 2.778757858276367188e+01
1.197836494445800781e+01 3.735311329364776611e-01 2.366000366210937500e+01
1.031071662902832031e+01 6.522735953330993652e-01 2.940379714965820312e+01
6.179562568664550781e+00 3.927444517612457275e-01 1.366011428833007812e+01
1.087917518615722656e+01 6.988691091537475586e-01 1.933436203002929688e+01
9.184717178344726562e+00 9.466351866722106934e-01 2.292652320861816406e+01
9.079612731933593750e+00 9.671263098716735840e-01 2.006397819519042969e+01
9.432360649108886719e+00 9.463624358177185059e-01 1.675862312316894531e+01
7.294341564178466797e+00 1.098603725433349609e+00 1.819990730285644531e+01
7.316093444824218750e+00 1.093279600143432617e+00 1.616151618957519531e+01
7.731743335723876953e+00 1.053820133209228516e+00 1.373401737213134766e+01
5.616797924041748047e+00 1.113636612892150879e+00 1.400890254974365234e+01
6.524850845336914062e+00 1.140435814857482910e+00 1.287393474578857422e+01
6.639572620391845703e+00 1.143967151641845703e+00 1.179083633422851562e+01
5.043528556823730469e+00 1.239088177680969238e+00 1.257363510131835938e+01
5.650386333465576172e+00 1.208233356475830078e+00 1.114523315429687500e+01
5.507407665252685547e+00 1.392484545707702637e+00 1.085997200012207031e+01
5.362378597259521484e+00 1.564670085906982422e+00 1.057083988189697266e+01
4.618657112121582031e+00 1.676766753196716309e+00 1.018466186523437500e+01
4.239200115203857422e+00 1.719181656837463379e+00 9.344346046447753906e+00
3.917198419570922852e+00 1.754813075065612793e+00 8.631672859191894531e+00
3.603368282318115234e+00 1.766675949096679688e+00 7.937117099761962891e+00
3.020414590835571289e+00 1.783470869064331055e+00 7.504730224609375000e+00
2.831409454345703125e+00 1.803604483604431152e+00 7.031741619110107422e+00
2.646005630493164062e+00 1.808097720146179199e+00 6.567822933197021484e+00
1.616915321350097656e+01 -7.643573284149169922e-01 3.170925140380859375e+01
5.481908798217773438e+00 -2.378049194812774658e-01 1.549091529846191406e+01
1.346907806396484375e+01 -3.222303986549377441e-01 3.335147476196289062e+01
1.363302230834960938e+01 -1.100906506180763245e-01 2.672767448425292969e+01
1.209454631805419922e+01 1.156556159257888794e-01 3.416205596923828125e+01
1.267260169982910156e+01 2.581647038459777832e-01 2.778982543945312500e+01
1.203990173339843750e+01 3.725709915161132812e-01 2.359732818603515625e+01
1.044575119018554688e+01 6.541826725006103516e-01 2.949190902709960938e+01
6.210822105407714844e+00 3.916747272014617920e-01 1.361518192291259766e+01
1.097434997558593750e+01 7.006238698959350586e-01 1.936097908020019531e+01
6.578849315643310547e+00 6.723729372024536133e-01 1.627362823486328125e+01
9.098622322082519531e+00 9.619831442832946777e-01 1.993904495239257812e+01
9.430758476257324219e+00 9.405698180198669434e-01 1.663336563110351562e+01
6.708332538604736328e+00 1.002072453498840332e+00 1.658675765991210938e+01
7.347746849060058594e+00 1.090052485466003418e+00 1.609671974182128906e+01
7.750224590301513672e+00 1.050167322158813477e+00 1.366629695892333984e+01
5.621113777160644531e+00 1.105483531951904297e+00 1.389322662353515625e+01
6.626009941101074219e+00 1.150680184364318848e+00 1.297237205505371094e+01
6.659847736358642578e+00 1.140830397605895996e+00 1.174048709869384766e+01
5.058325767517089844e+00 1.232759118080139160e+00 1.249684238433837891e+01
5.674484729766845703e+00 1.205657243728637695e+00 1.110619258880615234e+01
5.527912616729736328e+00 1.388816833496093750e+00 1.081611919403076172e+01
5.381096839904785156e+00 1.560230135917663574e+00 1.052574253082275391e+01
4.645670413970947266e+00 1.674736499786376953e+00 1.015936183929443359e+01
4.264407634735107422e+00 1.717299103736877441e+00 9.322067260742187500e+00
3.930359363555908203e+00 1.748411774635314941e+00 8.588979721069335938e+00
3.622548818588256836e+00 1.763699650764465332e+00 7.913336277008056641e+00
3.046155452728271484e+00 1.784572124481201172e+00 7.500689029693603516e+00
2.849066019058227539e+00 1.800648689270019531e+00 7.012053012847900391e+00
2.676816701889038086e+00 1.814858198165893555e+00 6.584666728973388672e+00
5.922766208648681641e+00 -6.973605155944824219e-01 1.452324104309082031e+01
1.621391296386718750e+01 -7.618876695632934570e-01 3.151106834411621094e+01
1.390223503112792969e+01 -5.980803966522216797e-01 3.883210372924804688e+01
1.354890632629394531e+01 -3.222098946571350098e-01 3.319818496704101562e+01
1.362105560302734375e+01 -1.099486798048019409e-01 2.646413421630859375e+01
1.214211273193359375e+01 1.138911247253417969e-01 3.390097808837890625e+01
1.274843120574951172e+01 2.568440437316894531e-01 2.768688774108886719e+01
1.213636779785156250e+01 3.722224533557891846e-01 2.357261657714843750e+01
1.065830326080322266e+01 6.597589254379272461e-01 2.974521827697753906e+01
1.172506618499755859e+01 7.328008413314819336e-01 2.545590400695800781e+01
1.142520332336425781e+01 7.241871953010559082e-01 1.998532676696777344e+01
9.249822616577148438e+00 9.361966252326965332e-01 2.264152908325195312e+01
6.216702461242675781e+00 6.516625881195068359e-01 1.349239921569824219e+01
9.418262481689453125e+00 9.328536987304687500e-01 1.647040176391601562e+01
6.754707336425781250e+00 9.994585514068603516e-01 1.652697563171386719e+01
7.387455463409423828e+00 1.086763024330139160e+00 1.602802467346191406e+01
7.774483203887939453e+00 1.046332120895385742e+00 1.359280109405517578e+01
5.670467853546142578e+00 1.104779005050659180e+00 1.386887931823730469e+01
6.661615848541259766e+00 1.148272037506103516e+00 1.292500400543212891e+01
6.684010505676269531e+00 1.137314677238464355e+00 1.168317508697509766e+01
5.102564334869384766e+00 1.232025742530822754e+00 1.247457790374755859e+01
5.711482048034667969e+00 1.204578518867492676e+00 1.107828712463378906e+01
5.562030315399169922e+00 1.387152910232543945e+00 1.078524112701416016e+01
5.408704280853271484e+00 1.556797266006469727e+00 1.048485946655273438e+01
4.671238899230957031e+00 1.670294284820556641e+00 1.011718654632568359e+01
4.288591861724853516e+00 1.713066816329956055e+00 9.284948348999023438e+00
3.960134267807006836e+00 1.747437357902526855e+00 8.571009635925292969e+00
3.652321100234985352e+00 1.763869643211364746e+00 7.901849746704101562e+00
3.071372032165527344e+00 1.783059239387512207e+00 7.484117984771728516e+00
2.873239040374755859e+00 1.799516081809997559e+00 6.998029232025146484e+00
2.701638936996459961e+00 1.815158486366271973e+00 6.576669692993164062e+00
5.965307712554931641e+00 -6.965444684028625488e-01 1.447554874420166016e+01
5.543924331665039062e+00 -5.253328084945678711e-01 1.531497764587402344e+01
1.618372917175292969e+01 -7.559632658958435059e-01 3.117101669311523438e+01
1.392870903015136719e+01 -5.943174362182617188e-01 3.846122360229492188e+01
1.350960731506347656e+01 -3.193854689598083496e-01 3.275818252563476562e+01
1.362485694885253906e+01 -1.099328026175498962e-01 2.623476600646972656e+01
1.213070106506347656e+01 1.116167604923248291e-01 3.348205566406250000e+01
1.275032615661621094e+01 2.540682852268218994e-01 2.742599105834960938e+01
1.242549419403076172e+01 3.777332305908203125e-01 2.391840934753417969e+01
1.161896800994873047e+01 7.109761834144592285e-01 3.205583953857421875e+01
1.171878719329833984e+01 7.259091138839721680e-01 2.519886779785156250e+01
1.148138713836669922e+01 7.225818634033203125e-01 1.991390609741210938e+01
9.300697326660156250e+00 9.323183298110961914e-01 2.252992439270019531e+01
6.240816116333007812e+00 6.486481428146362305e-01 1.341519832611083984e+01
9.485532760620117188e+00 9.330983757972717285e-01 1.644791984558105469e+01
7.367843627929687500e+00 1.079975008964538574e+00 1.784025573730468750e+01
7.415810585021972656e+00 1.081880569458007812e+00 1.593572616577148438e+01
7.807281017303466797e+00 1.043700933456420898e+00 1.353486728668212891e+01
5.672497272491455078e+00 1.094961166381835938e+00 1.373006439208984375e+01
6.692364692687988281e+00 1.145079851150512695e+00 1.286870384216308594e+01
6.711826801300048828e+00 1.134475588798522949e+00 1.163274765014648438e+01
5.154316425323486328e+00 1.233114123344421387e+00 1.247056293487548828e+01
5.748351573944091797e+00 1.203501462936401367e+00 1.105025863647460938e+01
5.594161033630371094e+00 1.385036706924438477e+00 1.075073242187500000e+01
5.440661907196044922e+00 1.554674983024597168e+00 1.045271110534667969e+01
4.706588268280029297e+00 1.669411897659301758e+00 1.009647274017333984e+01
4.318396091461181641e+00 1.711149215698242188e+00 9.260293006896972656e+00
3.991492033004760742e+00 1.747191905975341797e+00 8.556500434875488281e+00
3.678741931915283203e+00 1.762452125549316406e+00 7.883146286010742188e+00
3.100996494293212891e+00 1.784129977226257324e+00 7.478288173675537109e+00
2.905549287796020508e+00 1.803475141525268555e+00 7.003691196441650391e+00
2.719752073287963867e+00 1.811007261276245117e+00 6.552471160888671875e+00
1.620742607116699219e+01 -7.532575130462646484e-01 3.097826385498046875e+01
1.392789840698242188e+01 -5.901628732681274414e-01 3.808483505249023438e+01
1.351564788818359375e+01 -3.179346919059753418e-01 3.248291778564453125e+01
1.360519599914550781e+01 -1.097333654761314392e-01 2.599691390991210938e+01
1.158850383758544922e+01 1.048900634050369263e-01 3.167449378967285156e+01
5.636886596679687500e+00 1.112744733691215515e-01 1.202599811553955078e+01
8.438204765319824219e+00 2.545962035655975342e-01 1.611912536621093750e+01
1.158833026885986328e+01 7.021912336349487305e-01 3.166055488586425781e+01
5.639216423034667969e+00 3.466789722442626953e-01 1.202705192565917969e+01
1.155291271209716797e+01 7.226895093917846680e-01 1.989331817626953125e+01
9.329920768737792969e+00 9.276245832443237305e-01 2.240099716186523438e+01
5.642323493957519531e+00 5.822180509567260742e-01 1.202976226806640625e+01
9.520085334777832031e+00 9.310522675514221191e-01 1.638870429992675781e+01
7.418459892272949219e+00 1.078743338584899902e+00 1.780415344238281250e+01
5.646212100982666016e+00 8.179037570953369141e-01 1.203413581848144531e+01
7.824683189392089844e+00 1.040058612823486328e+00 1.346717071533203125e+01
5.698703289031982422e+00 1.091381549835205078e+00 1.367170715332031250e+01
6.719784736633300781e+00 1.142571210861206055e+00 1.282292842864990234e+01
6.735303401947021484e+00 1.132020473480224609e+00 1.158924198150634766e+01
5.170452594757080078e+00 1.227340698242187500e+00 1.239919948577880859e+01
5.775626659393310547e+00 1.201700568199157715e+00 1.101807880401611328e+01
5.620504379272460938e+00 1.382964968681335449e+00 1.071906948089599609e+01
5.463319301605224609e+00 1.551549673080444336e+00 1.041630172729492188e+01
4.718910217285156250e+00 1.662348031997680664e+00 1.004051876068115234e+01
4.336531639099121094e+00 1.706628799438476562e+00 9.223527908325195312e+00
4.020001888275146484e+00 1.747710227966308594e+00 8.547533035278320312e+00
3.704298257827758789e+00 1.762656331062316895e+00 7.873379230499267578e+00
3.121434450149536133e+00 1.782220125198364258e+00 7.461358070373535156e+00
2.913238286972045898e+00 1.794506549835205078e+00 6.960483074188232422e+00
2.735058546066284180e+00 1.807379961013793945e+00 6.531438827514648438e+00
6.012896537780761719e+00 -4.159792959690093994e-01 1.430834388732910156e+01
1.633486557006835938e+01 -7.547609806060791016e-01 3.094515419006347656e+01
1.390991783142089844e+01 -5.846925377845764160e-01 3.760774612426757812e+01
1.352067852020263672e+01 -3.162238597869873047e-01 3.216213989257812500e+01
8.478343963623046875e+00 -6.835216283798217773e-02 1.605695915222167969e+01
1.238954067230224609e+01 1.100174933671951294e-01 3.348312759399414062e+01
5.675789356231689453e+00 1.108312606811523438e-01 1.199441623687744141e+01
1.229472637176513672e+01 3.677333891391754150e-01 2.327806091308593750e+01
1.157030391693115234e+01 6.932094097137451172e-01 3.125598144531250000e+01
5.678975105285644531e+00 3.460753262042999268e-01 1.199728202819824219e+01
1.158128261566162109e+01 7.193967103958129883e-01 1.977497100830078125e+01
9.417368888854980469e+00 9.275014400482177734e-01 2.237958335876464844e+01
5.683800220489501953e+00 5.816124081611633301e-01 1.200360584259033203e+01
9.556847572326660156e+00 9.283583164215087891e-01 1.631409454345703125e+01
7.468924045562744141e+00 1.076099634170532227e+00 1.774191474914550781e+01
5.691975116729736328e+00 8.178061246871948242e-01 1.201700019836425781e+01
7.861865043640136719e+00 1.038100242614746094e+00 1.341777896881103516e+01
5.667469501495361328e+00 1.075554370880126953e+00 1.345775318145751953e+01
6.749011039733886719e+00 1.139227986335754395e+00 1.276476573944091797e+01
6.768645286560058594e+00 1.130196571350097656e+00 1.154904460906982422e+01
5.202694416046142578e+00 1.223884344100952148e+00 1.234900856018066406e+01
5.788028717041015625e+00 1.195628523826599121e+00 1.094408702850341797e+01
5.644862651824951172e+00 1.379036784172058105e+00 1.067034626007080078e+01
5.488448619842529297e+00 1.547600746154785156e+00 1.037172889709472656e+01
4.748867034912109375e+00 1.659691333770751953e+00 1.000891971588134766e+01
4.363512516021728516e+00 1.703723907470703125e+00 9.193377494812011719e+00
4.058021545410156250e+00 1.750377178192138672e+00 8.547019004821777344e+00
3.734783411026000977e+00 1.763226032257080078e+00 7.863354682922363281e+00
3.151011705398559570e+00 1.783292293548583984e+00 7.455329418182373047e+00
2.942489385604858398e+00 1.796615839004516602e+00 6.958784580230712891e+00
2.760458946228027344e+00 1.808177471160888672e+00 6.525005817413330078e+00
6.062176704406738281e+00 -4.161839485168457031e-01 1.427883434295654297e+01
8.566211700439453125e+00 -3.935239315032958984e-01 1.608493423461914062e+01
1.389913845062255859e+01 -5.796307325363159180e-01 3.715940856933593750e+01
1.354856014251708984e+01 -3.150752186775207520e-01 3.190067100524902344e+01
8.543719291687011719e+00 -6.884791702032089233e-02 1.603813171386718750e+01
1.252548789978027344e+01 1.091256290674209595e-01 3.347308731079101562e+01
1.274197769165039062e+01 2.461421340703964233e-01 2.667383003234863281e+01
8.574931144714355469e+00 2.542647719383239746e-01 1.609215927124023438e+01
1.157049942016601562e+01 6.854987740516662598e-01 3.090814781188964844e+01
1.187853336334228516e+01 7.176103591918945312e-01 2.485837936401367188e+01
1.160589027404785156e+01 7.159225344657897949e-01 1.965152359008789062e+01
9.511820793151855469e+00 9.280664920806884766e-01 2.237437820434570312e+01
9.411530494689941406e+00 9.551140069961547852e-01 1.968936920166015625e+01
9.604368209838867188e+00 9.267472028732299805e-01 1.625835418701171875e+01
7.521375179290771484e+00 1.073794960975646973e+00 1.768506050109863281e+01
7.545193195343017578e+00 1.075307369232177734e+00 1.577987194061279297e+01
7.896759510040283203e+00 1.035878419876098633e+00 1.336486053466796875e+01
5.683940410614013672e+00 1.068992376327514648e+00 1.335984420776367188e+01
6.773209095001220703e+00 1.135102033615112305e+00 1.269776630401611328e+01
6.795699119567871094e+00 1.127365708351135254e+00 1.149846649169921875e+01
5.236198902130126953e+00 1.220794916152954102e+00 1.230241298675537109e+01
5.848697185516357422e+00 1.199555397033691406e+00 1.096148395538330078e+01
5.670810222625732422e+00 1.375565409660339355e+00 1.062509346008300781e+01
5.516127586364746094e+00 1.544438958168029785e+00 1.033235836029052734e+01
4.776093006134033203e+00 1.656147837638854980e+00 9.971885681152343750e+00
4.394592761993408203e+00 1.702471971511840820e+00 9.172049522399902344e+00
4.090991020202636719e+00 1.750861883163452148e+00 8.535697937011718750e+00
3.760159254074096680e+00 1.761414647102355957e+00 7.842607498168945312e+00
3.178285837173461914e+00 1.783074140548706055e+00 7.443794727325439453e+00
2.973294973373413086e+00 1.799650669097900391e+00 6.960544109344482422e+00
2.785848855972290039e+00 1.808975696563720703e+00 6.518474578857421875e+00
5.621338367462158203e+00 -5.144299864768981934e-01 1.486852741241455078e+01
8.623218536376953125e+00 -3.938798010349273682e-01 1.604989624023437500e+01
5.602353572845458984e+00 -2.318128347396850586e-01 1.481223011016845703e+01
1.353764533996582031e+01 -3.130535483360290527e-01 3.155305099487304688e+01
8.617590904235839844e+00 -6.941091269254684448e-02 1.603489685058593750e+01
5.372071743011474609e+00 4.592236503958702087e-02 1.419757366180419922e+01
1.276841735839843750e+01 2.440239042043685913e-01 2.647924423217773438e+01
8.602599143981933594e+00 2.529036998748779297e-01 1.600250625610351562e+01
5.236245632171630859e+00 3.068020939826965332e-01 1.383293247222900391e+01
1.193653964996337891e+01 7.149280905723571777e-01 2.474627494812011719e+01
1.185170650482177734e+01 7.260527610778808594e-01 1.990085983276367188e+01
9.477813720703125000e+00 9.162060618400573730e-01 2.206945610046386719e+01
9.442803382873535156e+00 9.504476189613342285e-01 1.957019805908203125e+01
9.596402168273925781e+00 9.198477864265441895e-01 1.610981178283691406e+01
7.564052581787109375e+00 1.070155620574951172e+00 1.760604286193847656e+01
7.567380905151367188e+00 1.069830179214477539e+00 1.567844295501708984e+01
7.915029048919677734e+00 1.031529903411865234e+00 1.328443717956542969e+01
5.751750946044921875e+00 1.072125196456909180e+00 1.338294219970703125e+01
6.810234546661376953e+00 1.133180856704711914e+00 1.265534210205078125e+01
6.826554298400878906e+00 1.125210285186767578e+00 1.145469188690185547e+01
5.267071723937988281e+00 1.217163085937500000e+00 1.225024700164794922e+01
5.899191856384277344e+00 1.201367855072021484e+00 1.095930004119873047e+01
5.702155590057373047e+00 1.373458147048950195e+00 1.059029102325439453e+01
5.540771007537841797e+00 1.540495276451110840e+00 1.028768825531005859e+01
4.806554794311523438e+00 1.653791546821594238e+00 9.941909790039062500e+00
4.420422077178955078e+00 1.699240684509277344e+00 9.139960289001464844e+00
4.113654136657714844e+00 1.746982574462890625e+00 8.503006935119628906e+00
3.805073499679565430e+00 1.768733859062194824e+00 7.862361907958984375e+00
3.206291198730468750e+00 1.783286929130554199e+00 7.433954715728759766e+00
2.997214794158935547e+00 1.798522353172302246e+00 6.946092128753662109e+00
2.809691190719604492e+00 1.808785557746887207e+00 6.508285522460937500e+00
5.484128952026367188e+00 -4.981091320514678955e-01 1.436895179748535156e+01
8.674551963806152344e+00 -3.943004012107849121e-01 1.602447319030761719e+01
5.463394641876220703e+00 -2.245699763298034668e-01 1.430880832672119141e+01
6.079644680023193359e+00 -1.399201452732086182e-01 1.404824542999267578e+01
8.663160324096679688e+00 -6.974959373474121094e-02 1.599895095825195312e+01
5.655005931854248047e+00 4.756234586238861084e-02 1.480465221405029297e+01
1.280869102478027344e+01 2.425699234008789062e-01 2.635087394714355469e+01
8.647109031677246094e+00 2.523607313632965088e-01 1.596485996246337891e+01
5.670096874237060547e+00 3.291080594062805176e-01 1.483813476562500000e+01
1.191104507446289062e+01 7.081937193870544434e-01 2.449650955200195312e+01
1.186582756042480469e+01 7.226575613021850586e-01 1.978297805786132812e+01
9.504981040954589844e+00 9.116163253784179688e-01 2.194240570068359375e+01
9.457901000976562500e+00 9.453429579734802246e-01 1.944523239135742188e+01
9.628452301025390625e+00 9.177187085151672363e-01 1.604878044128417969e+01
7.604221820831298828e+00 1.067597627639770508e+00 1.754741477966308594e+01
7.596494674682617188e+00 1.066629290580749512e+00 1.561333942413330078e+01
7.945413112640380859e+00 1.029764175415039062e+00 1.324071598052978516e+01
5.806442737579345703e+00 1.074138998985290527e+00 1.339412212371826172e+01
6.838536739349365234e+00 1.130997419357299805e+00 1.261288642883300781e+01
6.852232933044433594e+00 1.123268961906433105e+00 1.141613864898681641e+01
5.286492824554443359e+00 1.212494850158691406e+00 1.218982315063476562e+01
5.907000541687011719e+00 1.195731163024902344e+00 1.089175319671630859e+01
5.722111225128173828e+00 1.370033144950866699e+00 1.054791641235351562e+01
5.557909011840820312e+00 1.536071658134460449e+00 1.024239444732666016e+01
4.832540988922119141e+00 1.651773214340209961e+00 9.916144371032714844e+00
4.440445423126220703e+00 1.695717930793762207e+00 9.108350753784179688e+00
4.138597488403320312e+00 1.746049046516418457e+00 8.486561775207519531e+00
3.814259290695190430e+00 1.761399269104003906e+00 7.818712711334228516e+00
3.235057830810546875e+00 1.786112666130065918e+00 7.436438560485839844e+00
3.021325588226318359e+00 1.799736499786376953e+00 6.942050457000732422e+00
2.828550815582275391e+00 1.807634115219116211e+00 6.495929718017578125e+00
5.713788509368896484e+00 -5.144787430763244629e-01 1.480750942230224609e+01
8.737062454223632812e+00 -3.949120938777923584e-01 1.599957847595214844e+01
5.717451095581054688e+00 -2.332235276699066162e-01 1.481105136871337891e+01
1.357507419586181641e+01 -3.107073307037353516e-01 3.105517578125000000e+01
8.723655700683593750e+00 -7.020267844200134277e-02 1.597060108184814453e+01
5.722195148468017578e+00 4.722657054662704468e-02 1.481741142272949219e+01
1.277656459808349609e+01 2.394156754016876221e-01 2.604162216186523438e+01
8.726652145385742188e+00 2.525344789028167725e-01 1.597167968750000000e+01
5.730199337005615234e+00 3.289952874183654785e-01 1.483218765258789062e+01
1.194788265228271484e+01 7.043860554695129395e-01 2.434502601623535156e+01
1.160616397857666016e+01 7.020476460456848145e-01 1.919030952453613281e+01
9.548469543457031250e+00 9.074758291244506836e-01 2.182323074340820312e+01
9.511478424072265625e+00 9.430478215217590332e-01 1.937460517883300781e+01
9.648934364318847656e+00 9.136721491813659668e-01 1.595017814636230469e+01
7.655652999877929688e+00 1.065304517745971680e+00 1.749019622802734375e+01
7.640450000762939453e+00 1.064349651336669922e+00 1.555855369567871094e+01
7.963911056518554688e+00 1.025556564331054688e+00 1.316203117370605469e+01
5.865876197814941406e+00 1.075656533241271973e+00 1.339654254913330078e+01
6.875131607055664062e+00 1.129081249237060547e+00 1.257028675079345703e+01
6.900199890136718750e+00 1.123975872993469238e+00 1.140121936798095703e+01
5.318326950073242188e+00 1.209233283996582031e+00 1.214122104644775391e+01
5.957369327545166016e+00 1.197546005249023438e+00 1.088928508758544922e+01
5.762616634368896484e+00 1.370198369026184082e+00 1.053040981292724609e+01
5.588720798492431641e+00 1.533962488174438477e+00 1.020983600616455078e+01
4.857475757598876953e+00 1.647643804550170898e+00 9.875352859497070312e+00
4.473770618438720703e+00 1.695460915565490723e+00 9.092077255249023438e+00
4.160960197448730469e+00 1.742173194885253906e+00 8.453753471374511719e+00
3.843726873397827148e+00 1.761575579643249512e+00 7.806503772735595703e+00
3.263047933578491211e+00 1.786326766014099121e+00 7.426384449005126953e+00
3.044369935989379883e+00 1.798147439956665039e+00 6.925651550292968750e+00
2.853090763092041016e+00 1.807939767837524414e+00 6.487358093261718750e+00
5.773342609405517578e+00 -5.160248875617980957e-01 1.482299804687500000e+01
8.806562423706054688e+00 -3.961535096168518066e-01 1.600707817077636719e+01
5.776296138763427734e+00 -2.341027557849884033e-01 1.482468605041503906e+01
1.352896118164062500e+01 -3.082086443901062012e-01 3.068663406372070312e+01
8.796925544738769531e+00 -7.076241075992584229e-02 1.598516750335693359e+01
5.780335426330566406e+00 4.694182425737380981e-02 1.482917976379394531e+01
1.279358863830566406e+01 2.375848740339279175e-01 2.587049674987792969e+01
8.809569358825683594e+00 2.531029582023620605e-01 1.600375938415527344e+01
5.789836406707763672e+00 3.293596804141998291e-01 1.484765625000000000e+01
1.195071411132812500e+01 6.994915604591369629e-01 2.415865325927734375e+01
1.164870357513427734e+01 7.005510926246643066e-01 1.912475204467773438e+01
9.564520835876464844e+00 9.019867777824401855e-01 2.167430686950683594e+01
9.553672790527343750e+00 9.407475590705871582e-01 1.930704879760742188e+01
9.657407760620117188e+00 9.093972444534301758e-01 1.585157871246337891e+01
7.682318687438964844e+00 1.060971140861511230e+00 1.740215492248535156e+01
7.652080535888671875e+00 1.058827519416809082e+00 1.545936775207519531e+01
7.979245185852050781e+00 1.021934390068054199e+00 1.309437751770019531e+01
5.885354995727539062e+00 1.071216940879821777e+00 1.332699203491210938e+01
6.888590335845947266e+00 1.124546170234680176e+00 1.250151443481445312e+01
6.940115451812744141e+00 1.124390602111816406e+00 1.138632869720458984e+01
5.345156669616699219e+00 1.206387877464294434e+00 1.209898567199707031e+01
5.967507839202880859e+00 1.192490816116333008e+00 1.082696723937988281e+01
5.779340267181396484e+00 1.366097092628479004e+00 1.048271369934082031e+01
5.579571723937988281e+00 1.522488713264465332e+00 1.011761379241943359e+01
4.884057998657226562e+00 1.645925045013427734e+00 9.851234436035156250e+00
4.491770267486572266e+00 1.691281557083129883e+00 9.056823730468750000e+00
4.183102130889892578e+00 1.740151286125183105e+00 8.431885719299316406e+00
3.867336273193359375e+00 1.760990381240844727e+00 7.792688846588134766e+00
3.282380104064941406e+00 1.783991694450378418e+00 7.407223701477050781e+00
3.069241523742675781e+00 1.799825072288513184e+00 6.923224925994873047e+00
8.901075363159179688e+00 -3.981951475143432617e-01 1.603936958312988281e+01
1.351687717437744141e+01 -3.062773942947387695e-01 3.035730743408203125e+01
8.901074409484863281e+00 -7.156421989202499390e-02 1.603500366210937500e+01
1.297434806823730469e+01 1.034011840820312500e-01 3.292793655395507812e+01
1.276863861083984375e+01 2.346583455801010132e-01 2.558365821838378906e+01
1.255424594879150391e+01 3.576897382736206055e-01 2.260993957519531250e+01
1.145010375976562500e+01 6.444223523139953613e-01 2.904811096191406250e+01
1.196593189239501953e+01 6.945619583129882812e-01 2.396803665161132812e+01
1.162978458404541016e+01 6.947367191314697266e-01 1.893716430664062500e+01
9.631673812866210938e+00 9.002185463905334473e-01 2.161175727844238281e+01
9.621675491333007812e+00 9.399431943893432617e-01 1.926657867431640625e+01
9.695557594299316406e+00 9.071220755577087402e-01 1.578376960754394531e+01
7.729765415191650391e+00 1.058240652084350586e+00 1.733744430541992188e+01
7.705993652343750000e+00 1.058025598526000977e+00 1.542590045928955078e+01
8.011495590209960938e+00 1.019596219062805176e+00 1.303957748413085938e+01
5.925204277038574219e+00 1.069218277931213379e+00 1.328533458709716797e+01
6.917877674102783203e+00 1.121536493301391602e+00 1.244659709930419922e+01
6.982824802398681641e+00 1.124259591102600098e+00 1.136255455017089844e+01
5.355359077453613281e+00 1.198410272598266602e+00 1.200296306610107422e+01
6.024541378021240234e+00 1.195651769638061523e+00 1.083638572692871094e+01
5.817698955535888672e+00 1.365811944007873535e+00 1.046151161193847656e+01
5.637795925140380859e+00 1.527960538864135742e+00 1.013527488708496094e+01
4.908598423004150391e+00 1.641799926757812500e+00 9.810331344604492188e+00
4.521373748779296875e+00 1.689707279205322266e+00 9.033306121826171875e+00
4.205144405364990234e+00 1.736279010772705078e+00 8.398976325988769531e+00
3.898475646972656250e+00 1.761961817741394043e+00 7.783784866333007812e+00
3.313466072082519531e+00 1.785927534103393555e+00 7.404122829437255859e+00
3.091384887695312500e+00 1.797775268554687500e+00 6.904890537261962891e+00
5.913636207580566406e+00 -5.196994543075561523e-01 1.486010837554931641e+01
1.593798446655273438e+01 -7.090964317321777344e-01 2.847308921813964844e+01
6.179199695587158203e+00 -2.467394173145294189e-01 1.552140045166015625e+01
1.351076507568359375e+01 -3.045111596584320068e-01 3.004672050476074219e+01
8.919724464416503906e+00 -7.167746126651763916e-02 1.593072223663330078e+01
6.275891780853271484e+00 4.908715933561325073e-02 1.575817871093750000e+01
1.210390663146972656e+01 2.201471328735351562e-01 2.403096771240234375e+01
1.256470775604248047e+01 3.550329506397247314e-01 2.243467521667480469e+01
1.149060726165771484e+01 6.398910880088806152e-01 2.884065055847167969e+01
1.197451972961425781e+01 6.893327832221984863e-01 2.376692199707031250e+01
1.158754920959472656e+01 6.876211762428283691e-01 1.871428108215332031e+01
9.665688514709472656e+00 8.954149484634399414e-01 2.147611045837402344e+01
9.676021575927734375e+00 9.378342628479003906e-01 1.919910049438476562e+01
9.717563629150390625e+00 9.033842682838439941e-01 1.569042110443115234e+01
7.772742748260498047e+00 1.054958224296569824e+00 1.726351356506347656e+01
7.733704090118408203e+00 1.053675413131713867e+00 1.534055137634277344e+01
8.040299415588378906e+00 1.016862511634826660e+00 1.297962856292724609e+01
6.016432285308837891e+00 1.076455473899841309e+00 1.335813903808593750e+01
6.946854591369628906e+00 1.118530154228210449e+00 1.239163398742675781e+01
7.025453567504882812e+00 1.124129891395568848e+00 1.133862113952636719e+01
5.382112503051757812e+00 1.194250941276550293e+00 1.194516468048095703e+01
6.029143810272216797e+00 1.188448309898376465e+00 1.075176620483398438e+01
5.845286369323730469e+00 1.363034725189208984e+00 1.042110538482666016e+01
5.663237094879150391e+00 1.524551510810852051e+00 1.009384727478027344e+01
4.946276664733886719e+00 1.642117142677307129e+00 9.795866966247558594e+00
4.552644729614257812e+00 1.688794493675231934e+00 9.013215065002441406e+00
4.238531112670898438e+00 1.737134218215942383e+00 8.388835906982421875e+00
3.926064491271972656e+00 1.761347055435180664e+00 7.767758369445800781e+00
3.346182107925415039e+00 1.788723707199096680e+00 7.404453277587890625e+00
3.132674217224121094e+00 1.806822776794433594e+00 6.929040431976318359e+00
1.584075355529785156e+01 -7.014935016632080078e-01 2.809193611145019531e+01
1.381267929077148438e+01 -5.481085777282714844e-01 3.438105010986328125e+01
1.351919746398925781e+01 -3.033266067504882812e-01 2.981469154357910156e+01
8.970708847045898438e+00 -7.205498218536376953e-02 1.590436267852783203e+01
1.297441577911376953e+01 9.986460208892822266e-02 3.228216171264648438e+01
1.203087329864501953e+01 2.168945372104644775e-01 2.370036697387695312e+01
1.246904659271240234e+01 3.498528599739074707e-01 2.210075187683105469e+01
6.438775539398193359e+00 3.553531169891357422e-01 1.601441764831542969e+01
1.073023509979248047e+01 6.133722066879272461e-01 2.113184928894042969e+01
1.164415645599365234e+01 6.870773434638977051e-01 1.867441940307617188e+01
9.722356796264648438e+00 8.938970565795898438e-01 2.142201042175292969e+01
9.730842590332031250e+00 9.368515610694885254e-01 1.915795135498046875e+01
9.714995384216308594e+00 8.982436656951904297e-01 1.557679080963134766e+01
7.805457592010498047e+00 1.051639676094055176e+00 1.719177055358886719e+01
7.769183635711669922e+00 1.051594257354736328e+00 1.529129791259765625e+01
8.058839797973632812e+00 1.013781547546386719e+00 1.291878223419189453e+01
6.030306816101074219e+00 1.071144104003906250e+00 1.327745914459228516e+01
6.970045089721679688e+00 1.115731716156005859e+00 1.234200763702392578e+01
7.065242767333984375e+00 1.124547719955444336e+00 1.132329368591308594e+01
5.404764175415039062e+00 1.190688729286193848e+00 1.189559555053710938e+01
6.055040359497070312e+00 1.186663985252380371e+00 1.071894168853759766e+01
5.870154857635498047e+00 1.360980033874511719e+00 1.038889408111572266e+01
5.680261611938476562e+00 1.520400285720825195e+00 1.005016040802001953e+01
4.968031883239746094e+00 1.638923048973083496e+00 9.762702941894531250e+00
4.572859764099121094e+00 1.685609698295593262e+00 8.983098983764648438e+00
4.260376930236816406e+00 1.735116004943847656e+00 8.366770744323730469e+00
3.951312303543090820e+00 1.761557698249816895e+00 7.757188320159912109e+00
3.369401931762695312e+00 1.788540959358215332e+00 7.393959999084472656e+00
3.151979446411132812e+00 1.805264830589294434e+00 6.913909435272216797e+00
1.564212226867675781e+01 -6.889722943305969238e-01 2.750354766845703125e+01
1.378738880157470703e+01 -5.431689023971557617e-01 3.395774841308593750e+01
1.353846359252929688e+01 -3.021773099899291992e-01 2.956855010986328125e+01
1.353252983093261719e+01 -1.086391583085060120e-01 2.378794288635253906e+01
1.291878414154052734e+01 9.759590029716491699e-02 3.180635833740234375e+01
1.208482551574707031e+01 2.156475782394409180e-01 2.359204292297363281e+01
9.009184837341308594e+00 2.507191896438598633e-01 1.583247375488281250e+01
1.141112899780273438e+01 6.232587695121765137e-01 2.808380317687988281e+01
1.079301357269287109e+01 6.119555830955505371e-01 2.106393241882324219e+01
1.175825595855712891e+01 6.892727017402648926e-01 1.870441436767578125e+01
9.754994392395019531e+00 8.891071677207946777e-01 2.128633880615234375e+01
9.788216590881347656e+00 9.350980520248413086e-01 1.909729766845703125e+01
9.741167068481445312e+00 8.950047492980957031e-01 1.549207210540771484e+01
7.838436603546142578e+00 1.047143101692199707e+00 1.709773635864257812e+01
7.802387714385986328e+00 1.048109292984008789e+00 1.521834945678710938e+01
8.083805084228515625e+00 1.010655879974365234e+00 1.285372161865234375e+01
6.066438674926757812e+00 1.068565368652343750e+00 1.322811222076416016e+01
7.003371715545654297e+00 1.113515734672546387e+00 1.229562950134277344e+01
7.106676101684570312e+00 1.124253034591674805e+00 1.129736423492431641e+01
5.421729564666748047e+00 1.184540152549743652e+00 1.181781959533691406e+01
6.105105876922607422e+00 1.188484907150268555e+00 1.071574878692626953e+01
5.908168792724609375e+00 1.360699653625488281e+00 1.036735820770263672e+01
5.714087486267089844e+00 1.519345879554748535e+00 1.002416324615478516e+01
4.985681533813476562e+00 1.632732868194580078e+00 9.709297180175781250e+00
4.602119922637939453e+00 1.684039950370788574e+00 8.959321975708007812e+00
4.289187431335449219e+00 1.734156131744384766e+00 8.347664833068847656e+00
3.996714115142822266e+00 1.768877029418945312e+00 7.775843620300292969e+00
3.403797388076782227e+00 1.792197585105895996e+00 7.397596359252929688e+00
3.179709911346435547e+00 1.806452870368957520e+00 6.907678604125976562e+00
1.569805812835693359e+01 -6.877512931823730469e-01 2.736796188354492188e+01
1.377891826629638672e+01 -5.389752984046936035e-01 3.358319854736328125e+01
1.351918125152587891e+01 -3.001932203769683838e-01 2.924279403686523438e+01
1.355691814422607422e+01 -1.087763458490371704e-01 2.362889480590820312e+01
1.297375297546386719e+01 9.620076417922973633e-02 3.160893249511718750e+01
1.218589782714843750e+01 2.152507007122039795e-01 2.357602882385253906e+01
1.251622581481933594e+01 3.455027639865875244e-01 2.180932235717773438e+01
1.142814636230468750e+01 6.177902221679687500e-01 2.783279609680175781e+01
1.087747669219970703e+01 6.117827296257019043e-01 2.103846740722656250e+01
1.183527755737304688e+01 6.892857551574707031e-01 1.867472839355468750e+01
6.235802173614501953e+00 5.634626746177673340e-01 1.347653102874755859e+01
9.826001167297363281e+00 9.315212965011596680e-01 1.899921226501464844e+01
9.774335861206054688e+00 8.924543261528015137e-01 1.541918087005615234e+01
7.882575035095214844e+00 1.044208049774169922e+00 1.702906608581542969e+01
7.842500686645507812e+00 1.045606851577758789e+00 1.515954780578613281e+01
8.104128837585449219e+00 1.007002711296081543e+00 1.278191089630126953e+01
6.105643272399902344e+00 1.066575407981872559e+00 1.318591785430908203e+01
7.017582416534423828e+00 1.108322501182556152e+00 1.221632480621337891e+01
7.157621860504150391e+00 1.125470280647277832e+00 1.128643035888671875e+01
5.461636543273925781e+00 1.183475613594055176e+00 1.179068374633789062e+01
6.129441738128662109e+00 1.185319781303405762e+00 1.066745281219482422e+01
5.930260658264160156e+00 1.356795907020568848e+00 1.031812000274658203e+01
5.735939025878906250e+00 1.515160441398620605e+00 9.977422714233398438e+00
5.013016700744628906e+00 1.629800319671630859e+00 9.675211906433105469e+00
4.628543376922607422e+00 1.681482672691345215e+00 8.930195808410644531e+00
4.308862209320068359e+00 1.729563832283020020e+00 8.310998916625976562e+00
4.019742488861083984e+00 1.766281604766845703e+00 7.750766277313232422e+00
3.430034875869750977e+00 1.791555643081665039e+00 7.383365154266357422e+00
3.204156160354614258e+00 1.805792927742004395e+00 6.894279479980468750e+00
5.597852230072021484e+00 -8.293914198875427246e-01 1.202056312561035156e+01
5.596874713897705078e+00 -5.940315723419189453e-01 1.201507186889648438e+01
5.606171131134033203e+00 -3.594191074371337891e-01 1.203108215332031250e+01
1.570994091033935547e+01 -6.851527690887451172e-01 2.719037246704101562e+01
1.377344703674316406e+01 -5.355113744735717773e-01 3.327181243896484375e+01
5.601888179779052734e+00 -1.238462626934051514e-01 1.201794910430908203e+01
1.354301643371582031e+01 -1.086138412356376648e-01 2.343380546569824219e+01
1.293983554840087891e+01 9.443086385726928711e-02 3.124650573730468750e+01
1.287982177734375000e+01 2.255455553531646729e-01 2.472782325744628906e+01
1.255164337158203125e+01 3.440954983234405518e-01 2.171277427673339844e+01
