# .PCD v0.7 - Point Cloud Data file format
VERSION 0.7
FIELDS x y z
SIZE 4 4 4
TYPE F F F
COUNT 1 1 1
WIDTH 636
HEIGHT 1
VIEWPOINT 0 0 0 1 0 0 0
POINTS 636
DATA ascii
4.477005481719970703e+00 1.465486407279968262e+00 2.071101951599121094e+01
1.639739632606506348e+00 1.538824319839477539e+00 2.008450508117675781e+01
3.163559913635253906e+00 1.528961658477783203e+00 1.851148605346679688e+01
3.725851297378540039e+00 1.530328392982482910e+00 1.722328376770019531e+01
1.381648659706115723e+00 1.593296170234680176e+00 1.688480567932128906e+01
2.696039438247680664e+00 1.584547281265258789e+00 1.576074790954589844e+01
2.339758396148681641e+00 1.618905186653137207e+00 1.366493415832519531e+01
2.090041637420654297e+00 1.663257002830505371e+00 1.219489860534667969e+01
1.398002862930297852e+00 1.695395112037658691e+00 1.103126144409179688e+01
1.272490739822387695e+00 1.719080686569213867e+00 1.002641677856445312e+01
1.176320195198059082e+00 1.751329302787780762e+00 9.256627082824707031e+00
1.085776805877685547e+00 1.765314698219299316e+00 8.531890869140625000e+00
6.616989374160766602e-01 1.779790282249450684e+00 7.948338508605957031e+00
6.185365915298461914e-01 1.789787054061889648e+00 7.411921024322509766e+00
5.832197666168212891e-01 1.805229425430297852e+00 6.970450401306152344e+00
5.519471764564514160e-01 1.819190382957458496e+00 6.580911636352539062e+00
5.855990409851074219e+00 -6.533858776092529297e-01 3.370481872558593750e+01
4.434957027435302734e+00 -3.372197151184082031e-01 5.246781539916992188e+01
5.863451004028320312e+00 -4.433225095272064209e-02 3.371591567993164062e+01
2.599679231643676758e+00 3.715182542800903320e-01 6.369588470458984375e+01
7.010333061218261719e+00 5.978605747222900391e-01 5.430410766601562500e+01
5.872128486633300781e+00 5.628557205200195312e-01 3.373410034179687500e+01
1.989906311035156250e+00 1.144178509712219238e+00 4.855176925659179688e+01
5.143568038940429688e+00 1.149163126945495605e+00 3.979249572753906250e+01
5.859037876129150391e+00 9.218104481697082520e-01 2.666841506958007812e+01
2.781839132308959961e+00 1.342518091201782227e+00 3.273659896850585938e+01
3.798563480377197266e+00 1.372072100639343262e+00 2.934941482543945312e+01
5.070838928222656250e+00 1.215510606765747070e+00 2.306387901306152344e+01
2.117410421371459961e+00 1.461469411849975586e+00 2.486323738098144531e+01
2.958040475845336914e+00 1.474896550178527832e+00 2.282592391967773438e+01
4.541711330413818359e+00 1.461225748062133789e+00 2.064385986328125000e+01
1.709244132041931152e+00 1.534473776817321777e+00 2.003072929382324219e+01
3.233759641647338867e+00 1.529481053352355957e+00 1.851356697082519531e+01
3.786354064941406250e+00 1.528729677200317383e+00 1.719789123535156250e+01
1.441290736198425293e+00 1.590276479721069336e+00 1.685389328002929688e+01
2.753416061401367188e+00 1.583825469017028809e+00 1.574885845184326172e+01
2.395962238311767578e+00 1.622624635696411133e+00 1.369154739379882812e+01
2.132643222808837891e+00 1.661252737045288086e+00 1.217550182342529297e+01
1.437884449958801270e+00 1.694417476654052734e+00 1.102220249176025391e+01
1.307158231735229492e+00 1.716057419776916504e+00 1.000610733032226562e+01
1.210209727287292480e+00 1.751014709472656250e+00 9.252317428588867188e+00
1.119809508323669434e+00 1.769447445869445801e+00 8.549285888671875000e+00
6.918110847473144531e-01 1.782127618789672852e+00 7.957591533660888672e+00
6.458373069763183594e-01 1.789997696876525879e+00 7.411606311798095703e+00
6.085651516914367676e-01 1.804487943649291992e+00 6.966401576995849609e+00
5.762016177177429199e-01 1.819493174552917480e+00 6.580831527709960938e+00
5.972498416900634766e+00 -6.537412405014038086e-01 3.364373397827148438e+01
2.753227710723876953e+00 -7.381934523582458496e-01 6.212863922119140625e+01
4.613692760467529297e+00 -3.380474150180816650e-01 5.229779815673828125e+01
5.995728015899658203e+00 -4.551947861909866333e-02 3.374342727661132812e+01
2.763327360153198242e+00 3.601709902286529541e-01 6.211752319335937500e+01
7.675103664398193359e+00 6.345259547233581543e-01 5.778506469726562500e+01
6.523748874664306641e+00 6.112055778503417969e-01 3.668138122558593750e+01
2.177449226379394531e+00 1.147538185119628906e+00 4.875991821289062500e+01
5.250876426696777344e+00 1.139462113380432129e+00 3.948408889770507812e+01
5.929251194000244141e+00 9.166961908340454102e-01 2.652390098571777344e+01
2.896482706069946289e+00 1.338935613632202148e+00 3.266651535034179688e+01
3.906608819961547852e+00 1.371260643005371094e+00 2.933930587768554688e+01
5.069850444793701172e+00 1.194622874259948730e+00 2.266313934326171875e+01
2.201957702636718750e+00 1.456283330917358398e+00 2.478178024291992188e+01
3.038488388061523438e+00 1.472587585449218750e+00 2.279124069213867188e+01
4.629519939422607422e+00 1.464414954185485840e+00 2.068164825439453125e+01
1.784919142723083496e+00 1.535757303237915039e+00 2.005020904541015625e+01
3.287207603454589844e+00 1.522217154502868652e+00 1.842118835449218750e+01
3.847156286239624023e+00 1.527306318283081055e+00 1.717423248291015625e+01
1.499309301376342773e+00 1.585762500762939453e+00 1.680690765380859375e+01
2.809341907501220703e+00 1.582316637039184570e+00 1.572892189025878906e+01
2.447497606277465820e+00 1.623097062110900879e+00 1.369055461883544922e+01
2.173384904861450195e+00 1.657918572425842285e+00 1.214620113372802734e+01
1.476666092872619629e+00 1.692235350608825684e+00 1.100516319274902344e+01
1.345632195472717285e+00 1.718064427375793457e+00 1.001498985290527344e+01
1.243821144104003906e+00 1.750331997871398926e+00 9.245934486389160156e+00
1.147968053817749023e+00 1.764333367347717285e+00 8.521887779235839844e+00
7.195330858230590820e-01 1.778368353843688965e+00 7.939515113830566406e+00
6.726160645484924316e-01 1.788805603981018066e+00 7.405380725860595703e+00
6.340640783309936523e-01 1.804246664047241211e+00 6.964190006256103516e+00
6.004626154899597168e-01 1.819796442985534668e+00 6.580660820007324219e+00
4.770500183105468750e+00 -3.390689194202423096e-01 5.220137405395507812e+01
1.270012664794921875e+01 -9.674257040023803711e-02 7.019428253173828125e+01
5.856588840484619141e+00 4.717472791671752930e-01 4.305695724487304688e+01
6.666377544403076172e+00 6.126839518547058105e-01 3.681224060058593750e+01
2.325059890747070312e+00 1.143339157104492188e+00 4.863703536987304688e+01
5.243222713470458984e+00 1.110433816909790039e+00 3.850075149536132812e+01
5.976271629333496094e+00 9.104344248771667480e-01 2.634532356262207031e+01
3.002175807952880859e+00 1.339352369308471680e+00 3.269112777709960938e+01
3.990640163421630859e+00 1.367633104324340820e+00 2.926754570007324219e+01
5.060087680816650391e+00 1.175199866294860840e+00 2.229069137573242188e+01
2.282155036926269531e+00 1.457066655158996582e+00 2.480063438415527344e+01
3.106810092926025391e+00 1.470392227172851562e+00 2.275789642333984375e+01
4.688702106475830078e+00 1.462048292160034180e+00 2.064175415039062500e+01
1.842566370964050293e+00 1.530751943588256836e+00 1.998696136474609375e+01
3.342188119888305664e+00 1.520396471023559570e+00 1.839512825012207031e+01
3.897976160049438477e+00 1.525618553161621094e+00 1.714850997924804688e+01
1.553176522254943848e+00 1.586386442184448242e+00 1.681406021118164062e+01
2.859073638916015625e+00 1.582066416740417480e+00 1.572202682495117188e+01
2.494384288787841797e+00 1.625257492065429688e+00 1.370434856414794922e+01
2.209020853042602539e+00 1.655709385871887207e+00 1.212571430206298828e+01
1.512014746665954590e+00 1.692819476127624512e+00 1.100639915466308594e+01
1.378138184547424316e+00 1.719114303588867188e+00 1.001857948303222656e+01
1.271763563156127930e+00 1.748588562011718750e+00 9.234246253967285156e+00
1.173638463020324707e+00 1.762478232383728027e+00 8.510531425476074219e+00
7.444465160369873047e-01 1.778133034706115723e+00 7.937270641326904297e+00
6.960335969924926758e-01 1.789053797721862793e+00 7.405222415924072266e+00
6.550054550170898438e-01 1.801542282104492188e+00 6.952578544616699219e+00
6.202011704444885254e-01 1.816946625709533691e+00 6.569200038909912109e+00
6.685126304626464844e+00 -7.069711089134216309e-01 3.622350311279296875e+01
4.956110954284667969e+00 -3.404830694198608398e-01 5.212379837036132812e+01
5.691593170166015625e+00 -4.351642727851867676e-02 3.081271553039550781e+01
5.712077140808105469e+00 4.466540813446044922e-01 4.087237167358398438e+01
6.647822380065917969e+00 5.976715087890625000e-01 3.595775985717773438e+01
2.498242855072021484e+00 1.139327049255371094e+00 4.853038406372070312e+01
5.244652748107910156e+00 1.080369591712951660e+00 3.748344802856445312e+01
6.021996974945068359e+00 9.019759297370910645e-01 2.610318565368652344e+01
3.122136354446411133e+00 1.338304281234741211e+00 3.268194198608398438e+01
4.092589378356933594e+00 1.364886283874511719e+00 2.921518135070800781e+01
5.071190357208251953e+00 1.158365130424499512e+00 2.196648979187011719e+01
2.370537042617797852e+00 1.454692125320434570e+00 2.476631736755371094e+01
3.191281795501708984e+00 1.470132827758789062e+00 2.275431632995605469e+01
4.762502193450927734e+00 1.460828661918640137e+00 2.061670875549316406e+01
1.915781378746032715e+00 1.530061483383178711e+00 1.998012924194335938e+01
3.408832073211669922e+00 1.519463181495666504e+00 1.837888908386230469e+01
3.961223363876342773e+00 1.525235891342163086e+00 1.713610267639160156e+01
1.610955595970153809e+00 1.582065343856811523e+00 1.676866912841796875e+01
2.915923595428466797e+00 1.581151962280273438e+00 1.570758533477783203e+01
2.548922538757324219e+00 1.627584338188171387e+00 1.371860980987548828e+01
2.255232334136962891e+00 1.656638979911804199e+00 1.212734031677246094e+01
1.552868366241455078e+00 1.693049550056457520e+00 1.100475978851318359e+01
1.415095210075378418e+00 1.719110608100891113e+00 1.001547527313232422e+01
1.306671738624572754e+00 1.749750852584838867e+00 9.237371444702148438e+00
1.207540988922119141e+00 1.766209006309509277e+00 8.525634765625000000e+00
7.744501233100891113e-01 1.780035495758056641e+00 7.944267272949218750e+00
7.252200841903686523e-01 1.793942332267761230e+00 7.423974990844726562e+00
6.825290918350219727e-01 1.806797027587890625e+00 6.971398353576660156e+00
6.446206569671630859e-01 1.817781567573547363e+00 6.570786952972412109e+00
5.766729354858398438e+00 -5.989893674850463867e-01 3.061790847778320312e+01
5.137875556945800781e+00 -3.416671156883239746e-01 5.201173019409179688e+01
1.321578598022460938e+01 -1.013991981744766235e-01 7.010715484619140625e+01
6.268599510192871094e+00 4.761720299720764160e-01 4.368597412109375000e+01
5.573869705200195312e+00 4.904034733772277832e-01 2.954278182983398438e+01
2.668362855911254883e+00 1.134342074394226074e+00 4.838119506835937500e+01
5.251208305358886719e+00 1.052883625030517578e+00 3.655373382568359375e+01
6.093416690826416016e+00 8.975682258605957031e-01 2.597783088684082031e+01
3.238517999649047852e+00 1.335793018341064453e+00 3.263652420043945312e+01
4.193356513977050781e+00 1.361867189407348633e+00 2.915652847290039062e+01
5.116043090820312500e+00 1.149654865264892578e+00 2.179612541198730469e+01
2.460081100463867188e+00 1.453137755393981934e+00 2.474559402465820312e+01
3.273493051528930664e+00 1.468853592872619629e+00 2.273462104797363281e+01
4.810634136199951172e+00 1.451900959014892578e+00 2.048262405395507812e+01
1.987389564514160156e+00 1.528156876564025879e+00 1.995715141296386719e+01
3.477255344390869141e+00 1.519341588020324707e+00 1.837220382690429688e+01
4.026255607604980469e+00 1.525545716285705566e+00 1.713122367858886719e+01
1.673364639282226562e+00 1.582421779632568359e+00 1.677261543273925781e+01
2.968631267547607422e+00 1.578072905540466309e+00 1.567142868041992188e+01
2.609148979187011719e+00 1.633385419845581055e+00 1.376193332672119141e+01
2.296311378479003906e+00 1.653842806816101074e+00 1.210152626037597656e+01
1.590612292289733887e+00 1.689967870712280273e+00 1.098144435882568359e+01
1.452330708503723145e+00 1.719442486763000488e+00 1.001418685913085938e+01
1.338795185089111328e+00 1.747227311134338379e+00 9.220911979675292969e+00
1.237341761589050293e+00 1.763912320137023926e+00 8.511520385742187500e+00
8.027460575103759766e-01 1.778020739555358887e+00 7.933670997619628906e+00
7.490609288215637207e-01 1.785737514495849609e+00 7.388442993164062500e+00
7.055010199546813965e-01 1.800063848495483398e+00 6.943867683410644531e+00
6.684738397598266602e-01 1.817024469375610352e+00 6.566527366638183594e+00
5.297187328338623047e+00 -3.429403603076934814e-01 5.195553207397460938e+01
5.686862945556640625e+00 -4.375762492418289185e-02 2.965562248229980469e+01
6.410151481628417969e+00 4.752315878868103027e-01 4.369576263427734375e+01
8.005440711975097656e+00 6.916272640228271484e-01 4.171108627319335938e+01
2.812289237976074219e+00 1.129658818244934082e+00 4.823488235473632812e+01
5.246314525604248047e+00 1.028366804122924805e+00 3.572216415405273438e+01
6.114382743835449219e+00 8.880482912063598633e-01 2.570384597778320312e+01
3.340194225311279297e+00 1.334504127502441406e+00 3.261827850341796875e+01
4.283165931701660156e+00 1.360470294952392578e+00 2.913139343261718750e+01
5.150708675384521484e+00 1.141568541526794434e+00 2.163813591003417969e+01
2.536358356475830078e+00 1.451590895652770996e+00 2.472388648986816406e+01
3.340225219726562500e+00 1.466154932975769043e+00 2.269267654418945312e+01
4.870312213897705078e+00 1.449957966804504395e+00 2.044804573059082031e+01
2.046587228775024414e+00 1.524985432624816895e+00 1.991713523864746094e+01
3.544353485107421875e+00 1.522869944572448730e+00 1.841017532348632812e+01
4.072177410125732422e+00 1.522136330604553223e+00 1.708558845520019531e+01
1.726228475570678711e+00 1.582113504409790039e+00 1.676930809020996094e+01
3.018954753875732422e+00 1.578220129013061523e+00 1.566793823242187500e+01
2.647079229354858398e+00 1.629753828048706055e+00 1.372641086578369141e+01
2.335795879364013672e+00 1.654564857482910156e+00 1.210208892822265625e+01
1.628263950347900391e+00 1.692962288856506348e+00 1.099796104431152344e+01
1.483758807182312012e+00 1.719153046607971191e+00 1.000962829589843750e+01
1.369174242019653320e+00 1.748803734779357910e+00 9.226437568664550781e+00
1.263473868370056152e+00 1.762862920761108398e+00 8.503770828247070312e+00
8.280460834503173828e-01 1.778657078742980957e+00 7.935048580169677734e+00
7.732541561126708984e-01 1.787857174873352051e+00 7.395778656005859375e+00
7.282955050468444824e-01 1.802356123924255371e+00 6.951303482055664062e+00
6.890739798545837402e-01 1.816830754280090332e+00 6.564451217651367188e+00
5.819699764251708984e+00 -5.852459669113159180e-01 2.978309059143066406e+01
5.484420776367187500e+00 -3.445293307304382324e-01 5.190591812133789062e+01
1.369265651702880859e+01 -1.056922525167465210e-01 7.001557922363281250e+01
6.286703586578369141e+00 4.533147215843200684e-01 4.178730773925781250e+01
7.003209114074707031e+00 5.925273299217224121e-01 3.578026199340820312e+01
2.979630947113037109e+00 1.124418497085571289e+00 4.807262039184570312e+01
5.256896495819091797e+00 1.004186272621154785e+00 3.490406799316406250e+01
6.205713748931884766e+00 8.868174552917480469e-01 2.566963958740234375e+01
3.461593151092529297e+00 1.334113836288452148e+00 3.262374877929687500e+01
4.390775203704833984e+00 1.359766244888305664e+00 2.912147521972656250e+01
5.171253681182861328e+00 1.128065466880798340e+00 2.137648200988769531e+01
2.623976469039916992e+00 1.449109077453613281e+00 2.468668174743652344e+01
3.421262025833129883e+00 1.464498400688171387e+00 2.266651916503906250e+01
4.915155887603759766e+00 1.440494894981384277e+00 2.030599784851074219e+01
2.119967460632324219e+00 1.524604320526123047e+00 1.991352081298828125e+01
3.598337411880493164e+00 1.516598463058471680e+00 1.832865142822265625e+01
4.133805751800537109e+00 1.521240711212158203e+00 1.706673240661621094e+01
1.783849954605102539e+00 1.578174471855163574e+00 1.672728347778320312e+01
3.075181007385253906e+00 1.577113509178161621e+00 1.565096664428710938e+01
2.683159828186035156e+00 1.620734930038452148e+00 1.364455413818359375e+01
2.380490303039550781e+00 1.654432415962219238e+00 1.209545135498046875e+01
1.666456222534179688e+00 1.690485000610351562e+00 1.097829723358154297e+01
1.519517898559570312e+00 1.717811465263366699e+00 9.998336791992187500e+00
1.403543353080749512e+00 1.749230146408081055e+00 9.225307464599609375e+00
1.294898509979248047e+00 1.762978315353393555e+00 8.501084327697753906e+00
8.573036193847656250e-01 1.778819561004638672e+00 7.933965206146240234e+00
8.003258705139160156e-01 1.787603020668029785e+00 7.392959594726562500e+00
7.537383437156677246e-01 1.802117347717285156e+00 6.948652744293212891e+00
7.137239575386047363e-01 1.818197369575500488e+00 6.567698001861572266e+00
5.739635467529296875e+00 -3.502792119979858398e-01 5.247990417480468750e+01
1.394878005981445312e+01 -1.079924851655960083e-01 6.996295928955078125e+01
6.451689243316650391e+00 4.527440071105957031e-01 4.184109115600585938e+01
8.301158905029296875e+00 6.880707740783691406e-01 4.160231018066406250e+01
3.153943538665771484e+00 1.122081756591796875e+00 4.803348922729492188e+01
5.270704269409179688e+00 9.817664623260498047e-01 3.414565277099609375e+01
6.306888580322265625e+00 8.869978785514831543e-01 2.567587280273437500e+01
3.587221622467041016e+00 1.335267424583435059e+00 3.266651153564453125e+01
4.414161682128906250e+00 1.333622932434082031e+00 2.856621551513671875e+01
5.191380977630615234e+00 1.114886760711669922e+00 2.112079048156738281e+01
2.713975191116333008e+00 1.448028802871704102e+00 2.467298126220703125e+01
3.496660232543945312e+00 1.460550308227539062e+00 2.260456848144531250e+01
4.924715995788574219e+00 1.421141028404235840e+00 2.002439498901367188e+01
2.190727472305297852e+00 1.522403359413146973e+00 1.988585090637207031e+01
3.657248020172119141e+00 1.512598037719726562e+00 1.827434730529785156e+01
4.196779251098632812e+00 1.520864725112915039e+00 1.705345726013183594e+01
1.846209764480590820e+00 1.578534007072448730e+00 1.673058891296386719e+01
3.131713628768920898e+00 1.576205492019653320e+00 1.563574409484863281e+01
2.733123064041137695e+00 1.620286464691162109e+00 1.363468742370605469e+01
2.428676366806030273e+00 1.656694412231445312e+00 1.210614109039306641e+01
1.706349253654479980e+00 1.689815282821655273e+00 1.097022247314453125e+01
1.555213809013366699e+00 1.716471076011657715e+00 9.986917495727539062e+00
1.436105489730834961e+00 1.747446537017822266e+00 9.212394714355468750e+00
1.326018095016479492e+00 1.762692809104919434e+00 8.496344566345214844e+00
8.848296403884887695e-01 1.775502085685729980e+00 7.917253971099853516e+00
8.260888457298278809e-01 1.784545183181762695e+00 7.378446102142333984e+00
7.796031236648559570e-01 1.802877545356750488e+00 6.949757575988769531e+00
7.375453710556030273e-01 1.817441463470458984e+00 6.563187599182128906e+00
6.102059364318847656e+00 -5.948390960693359375e-01 3.013668060302734375e+01
5.936683177947998047e+00 -3.537405133247375488e-01 5.274778747558593750e+01
6.104329586029052734e+00 -4.737576842308044434e-02 3.012368774414062500e+01
5.646114826202392578e+00 3.872721791267395020e-01 3.586827087402343750e+01
6.126905918121337891e+00 4.991307854652404785e-01 3.021093750000000000e+01
3.318807601928710938e+00 1.125389456748962402e+00 4.822684097290039062e+01
5.260924339294433594e+00 9.594455957412719727e-01 3.338642883300781250e+01
5.946603298187255859e+00 8.251147866249084473e-01 2.388504600524902344e+01
3.680604934692382812e+00 1.330981135368347168e+00 3.257370376586914062e+01
4.492341518402099609e+00 1.329392790794372559e+00 2.847923088073730469e+01
5.242238044738769531e+00 1.111031055450439453e+00 2.104239273071289062e+01
2.792123794555664062e+00 1.447653412818908691e+00 2.467033004760742188e+01
3.568878412246704102e+00 1.460409760475158691e+00 2.260140419006347656e+01
4.908431529998779297e+00 1.398047447204589844e+00 1.969136238098144531e+01
2.250694990158081055e+00 1.520150542259216309e+00 1.985712051391601562e+01
3.715013980865478516e+00 1.512245535850524902e+00 1.826476860046386719e+01
4.253685474395751953e+00 1.521603107452392578e+00 1.705376815795898438e+01
1.896939873695373535e+00 1.576549172401428223e+00 1.670892524719238281e+01
3.182383298873901367e+00 1.576552152633666992e+00 1.563367843627929688e+01
2.774333477020263672e+00 1.618977069854736328e+00 1.361829757690429688e+01
2.466276407241821289e+00 1.656087875366210938e+00 1.209656047821044922e+01
1.744500041007995605e+00 1.693110585212707520e+00 1.098829364776611328e+01
1.587793707847595215e+00 1.717523097991943359e+00 9.989825248718261719e+00
1.464705467224121094e+00 1.746813297271728516e+00 9.205950736999511719e+00
1.351753234863281250e+00 1.761243939399719238e+00 8.486387252807617188e+00
9.098953604698181152e-01 1.775704622268676758e+00 7.916429519653320312e+00
8.505737781524658203e-01 1.787132740020751953e+00 7.387461185455322266e+00
8.016285896301269531e-01 1.803172826766967773e+00 6.949254035949707031e+00
7.576919198036193848e-01 1.816187858581542969e+00 6.557063579559326172e+00
6.218133926391601562e+00 -5.963696241378784180e-01 3.014151000976562500e+01
7.523131370544433594e+00 -4.363511204719543457e-01 6.470867919921875000e+01
6.221161365509033203e+00 -4.841365665197372437e-02 3.013245010375976562e+01
6.955562114715576172e+00 4.647898972034454346e-01 4.315660476684570312e+01
6.234746932983398438e+00 4.979142248630523682e-01 3.017458915710449219e+01
3.451564788818359375e+00 1.109575629234313965e+00 4.760815048217773438e+01
5.309678554534912109e+00 9.452326297760009766e-01 3.291103744506835938e+01
6.014977455139160156e+00 8.217386603355407715e-01 2.378754425048828125e+01
3.785810232162475586e+00 1.324921250343322754e+00 3.243896865844726562e+01
5.222890853881835938e+00 1.509417772293090820e+00 3.234021377563476562e+01
5.283539295196533203e+00 1.102891206741333008e+00 2.088172531127929688e+01
2.879947900772094727e+00 1.445529341697692871e+00 2.463817024230957031e+01
3.651664972305297852e+00 1.459652662277221680e+00 2.258822631835937500e+01
4.896809577941894531e+00 1.373922586441040039e+00 1.934253311157226562e+01
2.325518131256103516e+00 1.520835757255554199e+00 1.986661911010742188e+01
3.775028705596923828e+00 1.508898496627807617e+00 1.821790122985839844e+01
4.319559574127197266e+00 1.522263884544372559e+00 1.705164146423339844e+01
1.956516861915588379e+00 1.574671268463134766e+00 1.668807411193847656e+01
3.233975648880004883e+00 1.573287367820739746e+00 1.559468364715576172e+01
2.822585344314575195e+00 1.617605447769165039e+00 1.360031700134277344e+01
2.508148431777954102e+00 1.654096603393554688e+00 1.207585620880126953e+01
1.781244397163391113e+00 1.689433455467224121e+00 1.096042060852050781e+01
1.622468352317810059e+00 1.715180158615112305e+00 9.972324371337890625e+00
1.497459530830383301e+00 1.745400190353393555e+00 9.194763183593750000e+00
1.381242156028747559e+00 1.758952379226684570e+00 8.471770286560058594e+00
9.379544854164123535e-01 1.773694276809692383e+00 7.905351638793945312e+00
8.771554827690124512e-01 1.785945653915405273e+00 7.380496501922607422e+00
8.247736096382141113e-01 1.797943830490112305e+00 6.927103519439697266e+00
7.812327146530151367e-01 1.814902544021606445e+00 6.550477981567382812e+00
6.449046611785888672e+00 -6.087278127670288086e-01 3.069186592102050781e+01
7.773823738098144531e+00 -4.393293559551239014e-01 6.479384613037109375e+01
8.839649200439453125e+00 -6.896810978651046753e-02 4.203657531738281250e+01
3.908924579620361328e+00 2.832399606704711914e-01 5.142286300659179688e+01
7.096100807189941406e+00 4.622017741203308105e-01 4.302428817749023438e+01
8.627991676330566406e+00 6.756955981254577637e-01 4.099851989746093750e+01
3.610665798187255859e+00 1.103228330612182617e+00 4.739385986328125000e+01
5.348181724548339844e+00 9.298638105392456055e-01 3.239432144165039062e+01
6.100613117218017578e+00 8.207773566246032715e-01 2.375955963134765625e+01
3.910624980926513672e+00 1.325838088989257812e+00 3.247452545166015625e+01
5.204541206359863281e+00 1.469700932502746582e+00 3.149302673339843750e+01
5.330691814422607422e+00 1.096193075180053711e+00 2.074812316894531250e+01
2.968291521072387695e+00 1.443757653236389160e+00 2.461164283752441406e+01
3.724955320358276367e+00 1.455206751823425293e+00 2.251763725280761719e+01
4.895116806030273438e+00 1.353253960609436035e+00 1.904236602783203125e+01
2.391832828521728516e+00 1.516065120697021484e+00 1.980456161499023438e+01
3.846275091171264648e+00 1.510080218315124512e+00 1.822545433044433594e+01
4.372568607330322266e+00 1.518443584442138672e+00 1.699908447265625000e+01
2.010466575622558594e+00 1.568504929542541504e+00 1.662154197692871094e+01
3.292316913604736328e+00 1.573366880416870117e+00 1.558862590789794922e+01
2.870741844177246094e+00 1.616235613822937012e+00 1.358216476440429688e+01
2.556054830551147461e+00 1.656093597412109375e+00 1.208409595489501953e+01
1.822348117828369141e+00 1.689969539642333984e+00 1.095973110198974609e+01
1.662863731384277344e+00 1.718862771987915039e+00 9.989712715148925781e+00
1.532735705375671387e+00 1.746934175491333008e+00 9.198971748352050781e+00
1.413865566253662109e+00 1.760676383972167969e+00 8.476377487182617188e+00
9.687896966934204102e-01 1.776903510093688965e+00 7.917426586151123047e+00
9.041705727577209473e-01 1.785693764686584473e+00 7.377296447753906250e+00
8.505991697311401367e-01 1.798705697059631348e+00 6.927943229675292969e+00
8.056766986846923828e-01 1.815740108489990234e+00 6.551464080810546875e+00
8.996012687683105469e+00 -8.378132581710815430e-01 4.215464782714843750e+01
8.987114906311035156e+00 -7.026594877243041992e-02 4.208096694946289062e+01
4.061759471893310547e+00 2.811045646667480469e-01 5.130068588256835938e+01
6.197143077850341797e+00 3.950510025024414062e-01 3.685248565673828125e+01
8.671049118041992188e+00 6.679474115371704102e-01 4.057034301757812500e+01
3.755088090896606445e+00 1.100516438484191895e+00 4.732650756835937500e+01
5.380882263183593750e+00 9.171715378761291504e-01 3.196732521057128906e+01
6.172191143035888672e+00 8.197262287139892578e-01 2.372869682312011719e+01
3.999855518341064453e+00 1.320679783821105957e+00 3.235898971557617188e+01
5.182601928710937500e+00 1.435336589813232422e+00 3.075944519042968750e+01
5.375202178955078125e+00 1.091437101364135742e+00 2.065205383300781250e+01
3.045817375183105469e+00 1.443154454231262207e+00 2.460422515869140625e+01
3.795654296875000000e+00 1.454562425613403320e+00 2.250586891174316406e+01
4.885503768920898438e+00 1.333788752555847168e+00 1.876047515869140625e+01
2.454014778137207031e+00 1.515486240386962891e+00 1.979699897766113281e+01
3.897222995758056641e+00 1.507146954536437988e+00 1.818408966064453125e+01
4.431454181671142578e+00 1.519874095916748047e+00 1.700652122497558594e+01
2.066084861755371094e+00 1.570630073547363281e+00 1.664286041259765625e+01
3.339997291564941406e+00 1.572341203689575195e+00 1.557241725921630859e+01
2.913789749145507812e+00 1.616086602210998535e+00 1.357507133483886719e+01
2.592315435409545898e+00 1.654692530632019043e+00 1.206830596923828125e+01
1.854762434959411621e+00 1.687851667404174805e+00 1.094230651855468750e+01
1.689265727996826172e+00 1.713558077812194824e+00 9.955333709716796875e+00
1.561272859573364258e+00 1.746302962303161621e+00 9.192227363586425781e+00
1.438820242881774902e+00 1.758427143096923828e+00 8.462290763854980469e+00
9.924167394638061523e-01 1.774498105049133301e+00 7.904714584350585938e+00
9.268316030502319336e-01 1.784543991088867188e+00 7.370616436004638672e+00
8.706396818161010742e-01 1.795010089874267578e+00 6.911841869354248047e+00
8.257460594177246094e-01 1.814487934112548828e+00 6.545130729675292969e+00
9.164649963378906250e+00 -7.182125002145767212e-02 4.215523147583007812e+01
4.243137359619140625e+00 2.788871526718139648e-01 5.120573806762695312e+01
6.311148643493652344e+00 3.925157785415649414e-01 3.670734024047851562e+01
8.812442779541015625e+00 6.660784482955932617e-01 4.050509643554687500e+01
3.931804656982421875e+00 1.099797010421752930e+00 4.735231781005859375e+01
5.469848155975341797e+00 9.114167094230651855e-01 3.178389167785644531e+01
6.663754463195800781e+00 8.719168305397033691e-01 2.523854255676269531e+01
4.129508972167968750e+00 1.323136687278747559e+00 3.243138885498046875e+01
5.006992340087890625e+00 1.356224775314331055e+00 2.906674003601074219e+01
5.431450366973876953e+00 1.086899399757385254e+00 2.055887222290039062e+01
3.129886627197265625e+00 1.439529061317443848e+00 2.454541397094726562e+01
3.870967149734497070e+00 1.451142430305480957e+00 2.245055198669433594e+01
4.884859561920166016e+00 1.314529657363891602e+00 1.848014450073242188e+01
2.524003744125366211e+00 1.513297915458679199e+00 1.976814270019531250e+01
3.964666843414306641e+00 1.506877064704895020e+00 1.817363166809082031e+01
4.499333381652832031e+00 1.521227121353149414e+00 1.701141166687011719e+01
2.128556728363037109e+00 1.571182012557983398e+00 1.664708137512207031e+01
3.394475221633911133e+00 1.570655107498168945e+00 1.554846096038818359e+01
2.961800813674926758e+00 1.614719629287719727e+00 1.355659675598144531e+01
2.637348651885986328e+00 1.654830574989318848e+00 1.206265640258789062e+01
1.893476128578186035e+00 1.686284780502319336e+00 1.092770385742187500e+01
1.727398157119750977e+00 1.714899182319641113e+00 9.958851814270019531e+00
1.594587802886962891e+00 1.745628595352172852e+00 9.184569358825683594e+00
1.470803141593933105e+00 1.759349226951599121e+00 8.462815284729003906e+00
1.019850850105285645e+00 1.771620750427246094e+00 7.889471530914306641e+00
9.555580019950866699e-01 1.787562966346740723e+00 7.380734443664550781e+00
8.981786966323852539e-01 1.799265742301940918e+00 6.925955772399902344e+00
8.506929278373718262e-01 1.816386699676513672e+00 6.549775600433349609e+00
6.581898212432861328e+00 -5.945835113525390625e-01 2.977131271362304688e+01
9.285819053649902344e+00 -7.293196022510528564e-02 4.197099685668945312e+01
4.427149772644042969e+00 2.768837511539459229e-01 5.114801406860351562e+01
5.919916152954101562e+00 3.593798577785491943e-01 3.369198226928710938e+01
5.547073364257812500e+00 4.115106463432312012e-01 2.505397224426269531e+01
4.103405475616455078e+00 1.097645759582519531e+00 4.731571960449218750e+01
5.475126743316650391e+00 8.922446370124816895e-01 3.113161849975585938e+01
6.751020908355712891e+00 8.704472184181213379e-01 2.519467544555664062e+01
4.228324890136718750e+00 1.315812110900878906e+00 3.226350784301757812e+01
5.043498516082763672e+00 1.336713910102844238e+00 2.865077972412109375e+01
5.429672718048095703e+00 1.071042895317077637e+00 2.025140762329101562e+01
3.217982053756713867e+00 1.437882184982299805e+00 2.451997184753417969e+01
3.945579051971435547e+00 1.447600007057189941e+00 2.239302444458007812e+01
4.888947963714599609e+00 1.297071933746337891e+00 1.822512435913085938e+01
2.594853878021240234e+00 1.511717915534973145e+00 1.974695205688476562e+01
4.022581577301025391e+00 1.503057360649108887e+00 1.812011337280273438e+01
4.533731937408447266e+00 1.511387586593627930e+00 1.689093971252441406e+01
2.187970161437988281e+00 1.569498300552368164e+00 1.662738037109375000e+01
3.447095632553100586e+00 1.568185687065124512e+00 1.551654243469238281e+01
3.008853197097778320e+00 1.612891912460327148e+00 1.353407287597656250e+01
2.678500652313232422e+00 1.652579188346862793e+00 1.203942394256591797e+01
1.931762814521789551e+00 1.684418320655822754e+00 1.091101646423339844e+01
1.762825846672058105e+00 1.713564515113830566e+00 9.946690559387207031e+00
1.628210425376892090e+00 1.745323300361633301e+00 9.178727149963378906e+00
1.502123951911926270e+00 1.759469270706176758e+00 8.459360122680664062e+00
1.049245238304138184e+00 1.772222161293029785e+00 7.889615058898925781e+00
9.823164939880371094e-01 1.786845326423645020e+00 7.375319480895996094e+00
9.209664463996887207e-01 1.794041395187377930e+00 6.903484344482421875e+00
8.728754520416259766e-01 1.812452554702758789e+00 6.533299446105957031e+00
9.400095939636230469e+00 -7.396290451288223267e-02 4.186355590820312500e+01
4.582260608673095703e+00 2.750322222709655762e-01 5.107210540771484375e+01
9.071689605712890625e+00 6.624486446380615234e-01 4.037203216552734375e+01
4.236971855163574219e+00 1.092364072799682617e+00 4.713534545898437500e+01
5.528825283050537109e+00 8.843111395835876465e-01 3.086830711364746094e+01
6.767312049865722656e+00 8.617632389068603516e-01 2.494187164306640625e+01
4.349050045013427734e+00 1.320768475532531738e+00 3.239469528198242188e+01
5.093622207641601562e+00 1.325531005859375000e+00 2.841261482238769531e+01
5.476503849029541016e+00 1.067228436470031738e+00 2.017260169982910156e+01
3.298964023590087891e+00 1.438909530639648438e+00 2.453947067260742188e+01
4.021173000335693359e+00 1.448867797851562500e+00 2.241003227233886719e+01
4.882350921630859375e+00 1.279849767684936523e+00 1.797480201721191406e+01
2.656853437423706055e+00 1.511143684387207031e+00 1.973875045776367188e+01
4.085159778594970703e+00 1.504650831222534180e+00 1.813271522521972656e+01
4.590408325195312500e+00 1.512133121490478516e+00 1.689012145996093750e+01
2.238043069839477539e+00 1.567524194717407227e+00 1.660468482971191406e+01
3.495363235473632812e+00 1.567557334899902344e+00 1.550374317169189453e+01
3.052206754684448242e+00 1.612977385520935059e+00 1.352848052978515625e+01
2.716722011566162109e+00 1.652509570121765137e+00 1.203293609619140625e+01
1.963550448417663574e+00 1.682004332542419434e+00 1.089132499694824219e+01
1.795441150665283203e+00 1.714619159698486328e+00 9.948918342590332031e+00
1.653518319129943848e+00 1.741382122039794922e+00 9.154275894165039062e+00
1.530061364173889160e+00 1.760833144187927246e+00 8.462367057800292969e+00
1.075054049491882324e+00 1.773731350898742676e+00 7.894072055816650391e+00
1.005981802940368652e+00 1.787564873695373535e+00 7.376105785369873047e+00
9.452453851699829102e-01 1.798829436302185059e+00 6.919802665710449219e+00
8.951997756958007812e-01 1.815974116325378418e+00 6.543955802917480469e+00
5.856598854064941406e+00 -2.961877286434173584e-01 4.258010101318359375e+01
5.653789997100830078e+00 -4.457515105605125427e-02 2.475452041625976562e+01
4.765311717987060547e+00 2.730311453342437744e-01 5.101117324829101562e+01
5.647598266601562500e+00 3.281638622283935547e-01 3.090652656555175781e+01
9.108634948730468750e+00 6.531835198402404785e-01 3.985311508178710938e+01
4.409861087799072266e+00 1.090779662132263184e+00 4.712153244018554688e+01
5.590472221374511719e+00 8.752351999282836914e-01 3.056664848327636719e+01
7.009852886199951172e+00 8.799519538879394531e-01 2.546618843078613281e+01
4.452427864074707031e+00 1.315152645111083984e+00 3.226772689819335938e+01
5.156685829162597656e+00 1.314137578010559082e+00 2.816976737976074219e+01
5.520150184631347656e+00 1.060780048370361328e+00 2.004266548156738281e+01
3.385030031204223633e+00 1.436454772949218750e+00 2.449957656860351562e+01
4.097499847412109375e+00 1.446093559265136719e+00 2.236378288269042969e+01
4.880326271057128906e+00 1.261739134788513184e+00 1.771061325073242188e+01
2.725327730178833008e+00 1.508357763290405273e+00 1.970127677917480469e+01
4.143549442291259766e+00 1.501159310340881348e+00 1.808269882202148438e+01
4.648547649383544922e+00 1.510393500328063965e+00 1.685979270935058594e+01
2.298312664031982422e+00 1.566589474678039551e+00 1.659248352050781250e+01
3.553025484085083008e+00 1.567447185516357422e+00 1.549476623535156250e+01
3.099520444869995117e+00 1.611383795738220215e+00 1.350757980346679688e+01
2.759003400802612305e+00 1.651057481765747070e+00 1.201523017883300781e+01
2.003784894943237305e+00 1.681943774223327637e+00 1.088606071472167969e+01
1.832936406135559082e+00 1.715292692184448242e+00 9.948151588439941406e+00
1.694159984588623047e+00 1.748437523841857910e+00 9.186881065368652344e+00
1.557125091552734375e+00 1.756140589714050293e+00 8.435570716857910156e+00
1.102327227592468262e+00 1.770856857299804688e+00 7.878542900085449219e+00
1.032710075378417969e+00 1.786848306655883789e+00 7.370508193969726562e+00
9.711098074913024902e-01 1.799592852592468262e+00 6.920192718505859375e+00
9.159280061721801758e-01 1.809391021728515625e+00 6.517779827117919922e+00
6.173768997192382812e+00 -3.056049942970275879e-01 4.369898605346679688e+01
1.615702247619628906e+01 -1.276266425848007202e-01 6.956626129150390625e+01
4.949522495269775391e+00 2.711213231086730957e-01 5.096550750732421875e+01
7.080573081970214844e+00 4.020854830741882324e-01 3.796121215820312500e+01
9.227461814880371094e+00 6.499801874160766602e-01 3.970262527465820312e+01
4.576125144958496094e+00 1.087634205818176270e+00 4.703942108154296875e+01
5.671261310577392578e+00 8.694427013397216797e-01 3.037893867492675781e+01
7.182144165039062500e+00 8.889267444610595703e-01 2.572337341308593750e+01
4.501377582550048828e+00 1.294148921966552734e+00 3.176252555847167969e+01
5.155657768249511719e+00 1.287186622619628906e+00 2.759297561645507812e+01
5.254434585571289062e+00 9.958733916282653809e-01 1.880845642089843750e+01
3.467481136322021484e+00 1.432612895965576172e+00 2.443565940856933594e+01
4.183081150054931641e+00 1.446622371673583984e+00 2.236828804016113281e+01
4.880729198455810547e+00 1.244741559028625488e+00 1.746205520629882812e+01
2.799734115600585938e+00 1.508900880813598633e+00 1.970700645446777344e+01
4.211580276489257812e+00 1.501219153404235840e+00 1.807521247863769531e+01
4.699549674987792969e+00 1.506420016288757324e+00 1.680431938171386719e+01
2.364972591400146484e+00 1.569938063621520996e+00 1.662540626525878906e+01
3.607052803039550781e+00 1.565768837928771973e+00 1.547006702423095703e+01
3.148978948593139648e+00 1.610946774482727051e+00 1.349618816375732422e+01
2.803444862365722656e+00 1.650934219360351562e+00 1.200702762603759766e+01
2.041451692581176758e+00 1.679781317710876465e+00 1.086704349517822266e+01
1.867898821830749512e+00 1.713626503944396973e+00 9.933677673339843750e+00
1.726699829101562500e+00 1.747030019760131836e+00 9.174878120422363281e+00
1.588365554809570312e+00 1.756262540817260742e+00 8.431797027587890625e+00
1.130610942840576172e+00 1.769721746444702148e+00 7.870648860931396484e+00
1.056918382644653320e+00 1.781931042671203613e+00 7.347489833831787109e+00
9.933989644050598145e-01 1.793873190879821777e+00 6.895564556121826172e+00
9.422587156295776367e-01 1.813941597938537598e+00 6.531622886657714844e+00
5.758155822753906250e+00 -4.929898977279663086e-01 2.446055030822753906e+01
6.314164161682128906e+00 -3.070228993892669678e-01 4.370113754272460938e+01
1.638831901550292969e+01 -1.296551078557968140e-01 6.956966400146484375e+01
5.107602596282958984e+00 2.695099115371704102e-01 5.092981719970703125e+01
5.607248306274414062e+00 3.123098611831665039e-01 2.954702949523925781e+01
9.310835838317871094e+00 6.460155844688415527e-01 3.949828338623046875e+01
4.693480014801025391e+00 1.079259037971496582e+00 4.672245025634765625e+01
5.661453247070312500e+00 8.527366518974304199e-01 2.980712318420410156e+01
7.277037143707275391e+00 8.899592757225036621e-01 2.575072288513183594e+01
4.623186588287353516e+00 1.299432873725891113e+00 3.190055084228515625e+01
5.130360126495361328e+00 1.258937478065490723e+00 2.698785781860351562e+01
5.579236030578613281e+00 1.045148134231567383e+00 1.973177146911621094e+01
3.545927524566650391e+00 1.432600736618041992e+00 2.443654632568359375e+01
4.246966361999511719e+00 1.443832874298095703e+00 2.232174682617187500e+01
4.875797748565673828e+00 1.229207038879394531e+00 1.723547935485839844e+01
2.853006362915039062e+00 1.503797173500061035e+00 1.963895416259765625e+01
4.266944885253906250e+00 1.500235199928283691e+00 1.805611801147460938e+01
4.738728046417236328e+00 1.501666307449340820e+00 1.674158668518066406e+01
2.411147356033325195e+00 1.565548658370971680e+00 1.657656288146972656e+01
3.653321266174316406e+00 1.564359903335571289e+00 1.544902324676513672e+01
3.187678575515747070e+00 1.608726263046264648e+00 1.347081279754638672e+01
2.840213775634765625e+00 1.650071144104003906e+00 1.199435424804687500e+01
2.077783346176147461e+00 1.681275725364685059e+00 1.087228298187255859e+01
1.898701548576354980e+00 1.713011026382446289e+00 9.925876617431640625e+00
1.753271460533142090e+00 1.744563341140747070e+00 9.157877922058105469e+00
1.615927815437316895e+00 1.757226943969726562e+00 8.432593345642089844e+00
1.157008051872253418e+00 1.772100806236267090e+00 7.878702640533447266e+00
1.081102132797241211e+00 1.783585667610168457e+00 7.351884365081787109e+00
1.018417596817016602e+00 1.799657821655273438e+00 6.915459632873535156e+00
9.604972004890441895e-01 1.809512615203857422e+00 6.513423919677734375e+00
6.190428256988525391e+00 -2.949703633785247803e-01 4.176266479492187500e+01
1.662595176696777344e+01 -1.317625194787979126e-01 6.943717193603515625e+01
5.298977851867675781e+00 2.679974436759948730e-01 5.095652008056640625e+01
8.813065528869628906e+00 4.800664782524108887e-01 4.552836990356445312e+01
9.444805145263671875e+00 6.440108418464660645e-01 3.941918563842773438e+01
4.869639396667480469e+00 1.078752040863037109e+00 4.675270080566406250e+01
5.771784305572509766e+00 8.519217967987060547e-01 2.979209327697753906e+01
7.451191425323486328e+00 8.987787961959838867e-01 2.600253868103027344e+01
5.306327819824218750e+00 1.453468203544616699e+00 3.569245147705078125e+01
5.128814697265625000e+00 1.233892798423767090e+00 2.645111465454101562e+01
5.653700351715087891e+00 1.044933557510375977e+00 1.971890830993652344e+01
3.631324529647827148e+00 1.430156350135803223e+00 2.439579010009765625e+01
4.333667278289794922e+00 1.444744706153869629e+00 2.233155822753906250e+01
4.897650241851806641e+00 1.218399047851562500e+00 1.707369232177734375e+01
2.914357900619506836e+00 1.497697353363037109e+00 1.955740928649902344e+01
4.325618743896484375e+00 1.497074842453002930e+00 1.800939941406250000e+01
4.776392459869384766e+00 1.493746757507324219e+00 1.664180374145507812e+01
2.471858978271484375e+00 1.564990043640136719e+00 1.656766891479492188e+01
3.704775810241699219e+00 1.561704874038696289e+00 1.541429901123046875e+01
3.237930774688720703e+00 1.608753561973571777e+00 1.346296024322509766e+01
2.886446475982666016e+00 1.651011109352111816e+00 1.199356079101562500e+01
2.119858980178833008e+00 1.682718873023986816e+00 1.087629985809326172e+01
1.935417175292968750e+00 1.713017940521240234e+00 9.920848846435546875e+00
1.783404946327209473e+00 1.740951895713806152e+00 9.134087562561035156e+00
1.646794199943542480e+00 1.756949067115783691e+00 8.426677703857421875e+00
1.183812499046325684e+00 1.768794775009155273e+00 7.860959529876708984e+00
1.106561183929443359e+00 1.781004548072814941e+00 7.338321685791015625e+00
1.041124463081359863e+00 1.794937610626220703e+00 6.894509315490722656e+00
9.840450882911682129e-01 1.808763265609741211e+00 6.508018970489501953e+00
5.868324756622314453e+00 -9.297441840171813965e-01 2.414984893798828125e+01
5.708504676818847656e+00 -2.667101621627807617e-01 3.756175994873046875e+01
1.690444183349609375e+01 -1.341893374919891357e-01 6.947487640380859375e+01
5.518029212951660156e+00 2.678158879280090332e-01 5.123702621459960938e+01
7.053224563598632812e+00 3.758903443813323975e-01 3.573463439941406250e+01
9.495533943176269531e+00 6.364635229110717773e-01 3.899962234497070312e+01
4.992691040039062500e+00 1.066836595535278320e+00 4.628729248046875000e+01
5.834426879882812500e+00 8.442136645317077637e-01 2.953541374206542969e+01
5.382656097412109375e+00 6.404908299446105957e-01 1.852730941772460938e+01
4.938147544860839844e+00 1.319000005722045898e+00 3.239930343627929688e+01
5.126118183135986328e+00 1.209524512290954590e+00 2.592847251892089844e+01
5.727029800415039062e+00 1.044517040252685547e+00 1.970192909240722656e+01
3.714061021804809570e+00 1.426789999008178711e+00 2.433894538879394531e+01
4.410035610198974609e+00 1.442235589027404785e+00 2.228816604614257812e+01
4.949585914611816406e+00 1.215263128280639648e+00 1.701926803588867188e+01
2.980571031570434570e+00 1.494321703910827637e+00 1.951116561889648438e+01
4.400077342987060547e+00 1.499394416809082031e+00 1.802834129333496094e+01
4.784440040588378906e+00 1.476897716522216797e+00 1.644248199462890625e+01
2.531935453414916992e+00 1.564060807228088379e+00 1.655461883544921875e+01
3.760746479034423828e+00 1.561012983322143555e+00 1.539873981475830078e+01
3.290526390075683594e+00 1.609935641288757324e+00 1.346457004547119141e+01
2.924706220626831055e+00 1.647442221641540527e+00 1.195985317230224609e+01
2.160449981689453125e+00 1.682961463928222656e+00 1.087239742279052734e+01
1.972121238708496094e+00 1.713025689125061035e+00 9.915683746337890625e+00
1.817225217819213867e+00 1.741019010543823242e+00 9.129482269287109375e+00
1.678404569625854492e+00 1.757473587989807129e+00 8.424491882324218750e+00
1.213182091712951660e+00 1.769399285316467285e+00 7.860490798950195312e+00
1.134608149528503418e+00 1.782624483108520508e+00 7.341969013214111328e+00
1.069023013114929199e+00 1.799192667007446289e+00 6.907938480377197266e+00
1.010814428329467773e+00 1.813843607902526855e+00 6.523491382598876953e+00
5.867211341857910156e+00 -9.183632135391235352e-01 2.381883049011230469e+01
5.881912708282470703e+00 -4.843619465827941895e-01 2.386300849914550781e+01
7.171614170074462891e+00 -8.143576383590698242e-01 6.477913665771484375e+01
5.890970706939697266e+00 -4.682578891515731812e-02 2.388418388366699219e+01
5.730748176574707031e+00 2.687379717826843262e-01 5.168658065795898438e+01
9.035782814025878906e+00 4.727364480495452881e-01 4.503402328491210938e+01
5.648030757904052734e+00 3.731234967708587646e-01 2.288436126708984375e+01
5.158580780029296875e+00 1.069730997085571289e+00 4.645622634887695312e+01
5.901585578918457031e+00 8.397411108016967773e-01 2.938955879211425781e+01
7.555820941925048828e+00 8.887753486633300781e-01 2.570580673217773438e+01
5.010382652282714844e+00 1.310351610183715820e+00 3.219410705566406250e+01
5.109904289245605469e+00 1.186133146286010742e+00 2.542650985717773438e+01
5.764645576477050781e+00 1.039616942405700684e+00 1.960147476196289062e+01
3.787407636642456055e+00 1.424932718276977539e+00 2.430747222900390625e+01
4.481584548950195312e+00 1.442114353179931641e+00 2.228207397460937500e+01
4.977101802825927734e+00 1.208514451980590820e+00 1.691562080383300781e+01
3.035374164581298828e+00 1.490590453147888184e+00 1.946037292480468750e+01
4.456669807434082031e+00 1.498898029327392578e+00 1.801447486877441406e+01
4.771898269653320312e+00 1.456870317459106445e+00 1.620950508117675781e+01
2.578990459442138672e+00 1.560609579086303711e+00 1.651515007019042969e+01
3.808124065399169922e+00 1.560197114944458008e+00 1.538303375244140625e+01
3.324665307998657227e+00 1.605643153190612793e+00 1.342143440246582031e+01
2.963671207427978516e+00 1.647908568382263184e+00 1.195643138885498047e+01
2.198877334594726562e+00 1.685956954956054688e+00 1.088692951202392578e+01
2.000111579895019531e+00 1.710073947906494141e+00 9.894030570983886719e+00
1.845482110977172852e+00 1.740394353866577148e+00 9.121854782104492188e+00
1.702892661094665527e+00 1.755232214927673340e+00 8.409629821777343750e+00
1.237541198730468750e+00 1.768738865852355957e+00 7.854767322540283203e+00
1.157036423683166504e+00 1.781480073928833008e+00 7.334581851959228516e+00
1.087973833084106445e+00 1.794507741928100586e+00 6.887383460998535156e+00
1.029470086097717285e+00 1.810476899147033691e+00 6.508910655975341797e+00
5.940413475036621094e+00 -9.169558286666870117e-01 2.374090957641601562e+01
5.813439369201660156e+00 -4.724575579166412354e-01 2.321862030029296875e+01
7.419905185699462891e+00 -8.177793025970458984e-01 6.484776306152343750e+01
5.738624572753906250e+00 -2.588823437690734863e-01 3.610385513305664062e+01
5.959024429321289062e+00 -4.743716493248939514e-02 2.378483009338378906e+01
5.985023021697998047e+00 2.698937058448791504e-01 5.223152160644531250e+01
6.164154529571533203e+00 3.157250583171844482e-01 3.014867591857910156e+01
5.969165325164794922e+00 3.878069221973419189e-01 2.381010437011718750e+01
5.311466217041015625e+00 1.064667463302612305e+00 4.628607940673828125e+01
