# .PCD v0.7 - Point Cloud Data file format
VERSION 0.7
FIELDS x y z
SIZE 4 4 4
TYPE F F F
COUNT 1 1 1
WIDTH 628
HEIGHT 1
VIEWPOINT 0 0 0 1 0 0 0
POINTS 628
DATA ascii
-6.661253452301025391e+00 8.525062799453735352e-01 1.296608448028564453e+01
-1.367746162414550781e+01 1.579757690429687500e+00 1.973350334167480469e+01
-6.926366329193115234e+00 9.259579181671142578e-01 1.099530982971191406e+01
-1.366819953918457031e+01 2.005799770355224609e+00 1.972805595397949219e+01
-1.283533000946044922e+01 2.294111251831054688e+00 2.251967620849609375e+01
-1.047869491577148438e+01 2.153744697570800781e+00 2.041491317749023438e+01
-6.998866081237792969e+00 1.245059967041015625e+00 1.010625743865966797e+01
-1.005260467529296875e+01 2.156915187835693359e+00 1.764513778686523438e+01
-8.245437622070312500e+00 2.064704179763793945e+00 1.447942829132080078e+01
-6.877735137939453125e+00 1.968735456466674805e+00 1.208298873901367188e+01
-6.609866619110107422e+00 1.984195113182067871e+00 1.051564121246337891e+01
-5.960021495819091797e+00 1.987565636634826660e+00 9.486127853393554688e+00
-5.431964397430419922e+00 1.992202162742614746e+00 8.649261474609375000e+00
-4.965312480926513672e+00 1.986151576042175293e+00 7.909815311431884766e+00
-1.378972148895263672e+01 -4.125933647155761719e-01 2.001379966735839844e+01
-1.335929965972900391e+01 -3.269338309764862061e-01 2.358069229125976562e+01
-1.499530792236328125e+01 -1.152032613754272461e-01 1.985551261901855469e+01
-1.366089439392089844e+01 1.823582500219345093e-02 1.983478355407714844e+01
-1.335457038879394531e+01 1.555333584547042847e-01 2.358282470703125000e+01
-1.507848072052001953e+01 3.261497318744659424e-01 1.997332572937011719e+01
-1.420857524871826172e+01 4.828808903694152832e-01 2.271126556396484375e+01
-1.510865497589111328e+01 7.200050354003906250e-01 2.669218063354492188e+01
-1.607199859619140625e+01 8.206012845039367676e-01 2.129758453369140625e+01
-1.364433383941650391e+01 9.200329184532165527e-01 2.181852912902832031e+01
-1.300631904602050781e+01 1.166883230209350586e+00 2.553461074829101562e+01
-1.361148071289062500e+01 1.153587222099304199e+00 1.978419876098632812e+01
-1.343784141540527344e+01 1.355928659439086914e+00 2.149735641479492188e+01
-6.654465198516845703e+00 8.571833968162536621e-01 1.307050800323486328e+01
-1.360846424102783203e+01 1.579221248626708984e+00 1.978849029541015625e+01
-1.351202392578125000e+01 1.815952181816101074e+00 2.162511444091796875e+01
-6.640726089477539062e+00 1.114453077316284180e+00 1.304908370971679688e+01
-7.013564109802246094e+00 1.034234642982482910e+00 1.020274734497070312e+01
-6.743439674377441406e+00 1.212550163269042969e+00 1.193286800384521484e+01
-6.622922897338867188e+00 1.370465517044067383e+00 1.302022647857666016e+01
-7.004620552062988281e+00 1.252238988876342773e+00 1.019420528411865234e+01
-6.728703498840332031e+00 1.452545285224914551e+00 1.191206169128417969e+01
-6.712944030761718750e+00 1.691316723823547363e+00 1.188942337036132812e+01
-6.822730064392089844e+00 1.965106368064880371e+00 1.208921432495117188e+01
-6.578628063201904297e+00 1.985918164253234863e+00 1.055159759521484375e+01
-5.933578968048095703e+00 1.989922761917114258e+00 9.521347999572753906e+00
-5.401298046112060547e+00 1.992186665534973145e+00 8.670849800109863281e+00
-4.944593429565429688e+00 1.989114761352539062e+00 7.941316604614257812e+00
-1.377985763549804688e+01 -4.149993360042572021e-01 2.013457107543945312e+01
-1.334789180755615234e+01 -3.293936848640441895e-01 2.373409080505371094e+01
-1.490285015106201172e+01 -1.157890632748603821e-01 1.986252403259277344e+01
-1.364933395385742188e+01 1.750096678733825684e-02 1.995188140869140625e+01
-1.335098648071289062e+01 1.554433405399322510e-01 2.375018882751464844e+01
-1.480328369140625000e+01 3.207245469093322754e-01 1.973743057250976562e+01
-1.402003479003906250e+01 4.779911041259765625e-01 2.256726074218750000e+01
-1.503649425506591797e+01 7.195357680320739746e-01 2.676045036315917969e+01
-1.600023078918457031e+01 8.194773197174072266e-01 2.134159469604492188e+01
-1.365482044219970703e+01 9.245262742042541504e-01 2.198865890502929688e+01
-1.299456119537353516e+01 1.172095298767089844e+00 2.571092796325683594e+01
-1.358422183990478516e+01 1.155762314796447754e+00 1.987802696228027344e+01
-1.367044544219970703e+01 1.385504007339477539e+00 2.202310371398925781e+01
-6.646694183349609375e+00 8.610033988952636719e-01 1.315731239318847656e+01
-1.356989383697509766e+01 1.581177830696105957e+00 1.986579895019531250e+01
-6.903985500335693359e+00 9.321162104606628418e-01 1.112701892852783203e+01
-6.643761634826660156e+00 1.121393322944641113e+00 1.315714263916015625e+01
-6.973625183105468750e+00 1.032658338546752930e+00 1.021323871612548828e+01
-6.741025924682617188e+00 1.218431353569030762e+00 1.201658058166503906e+01
-6.634943008422851562e+00 1.380990624427795410e+00 1.314589309692382812e+01
-6.978186607360839844e+00 1.252835035324096680e+00 1.022441482543945312e+01
-6.739904403686523438e+00 1.462639570236206055e+00 1.201992130279541016e+01
-6.728957653045654297e+00 1.704376459121704102e+00 1.200573348999023438e+01
-6.764420509338378906e+00 1.958753824234008789e+00 1.207436847686767578e+01
-6.533000946044921875e+00 1.981717824935913086e+00 1.055212402343750000e+01
-5.892267704010009766e+00 1.985705614089965820e+00 9.521582603454589844e+00
-5.369929313659667969e+00 1.990313649177551270e+00 8.681158065795898438e+00
-4.907303333282470703e+00 1.983810901641845703e+00 7.936905384063720703e+00
-2.305496597290039062e+01 -8.652539849281311035e-01 3.095139122009277344e+01
-1.376999664306640625e+01 -4.178886115550994873e-01 2.027922058105468750e+01
-1.333093261718750000e+01 -3.322100043296813965e-01 2.390860176086425781e+01
-1.477262115478515625e+01 -1.162920147180557251e-01 1.984000587463378906e+01
-1.334369277954101562e+01 1.553030610084533691e-01 2.394221878051757812e+01
-1.588071155548095703e+01 3.447374105453491211e-01 2.133645057678222656e+01
-1.360994625091552734e+01 4.657530188560485840e-01 2.208735084533691406e+01
-1.494027423858642578e+01 7.184243798255920410e-01 2.681889724731445312e+01
-1.586822223663330078e+01 8.156919479370117188e-01 2.132794761657714844e+01
-1.358358860015869141e+01 9.241572618484497070e-01 2.205390548706054688e+01
-1.297543144226074219e+01 1.177783966064453125e+00 2.590851211547851562e+01
-1.355838108062744141e+01 1.158853054046630859e+00 1.999716567993164062e+01
-1.377498912811279297e+01 1.403372526168823242e+00 2.237412452697753906e+01
-6.635979175567626953e+00 8.653176426887512207e-01 1.325660228729248047e+01
-1.354180526733398438e+01 1.585488319396972656e+00 1.998153686523437500e+01
-6.921725749969482422e+00 9.395525455474853516e-01 1.124742412567138672e+01
-6.644594669342041016e+00 1.129153490066528320e+00 1.327953433990478516e+01
-6.955166816711425781e+00 1.035006642341613770e+00 1.026681804656982422e+01
-6.786045551300048828e+00 1.234091401100158691e+00 1.220142745971679688e+01
-6.640183925628662109e+00 1.391610741615295410e+00 1.327702808380126953e+01
-6.968580245971679688e+00 1.257387638092041016e+00 1.029115772247314453e+01
-6.776037216186523438e+00 1.479612469673156738e+00 1.218887424468994141e+01
-6.715789794921875000e+00 1.711699247360229492e+00 1.208589553833007812e+01
-6.707654476165771484e+00 1.954568028450012207e+00 1.207664299011230469e+01
-6.498448848724365234e+00 1.982494115829467773e+00 1.058279895782470703e+01
-5.855303287506103516e+00 1.984569907188415527e+00 9.539829254150390625e+00
-5.339135169982910156e+00 1.990297555923461914e+00 8.702525138854980469e+00
-4.885373115539550781e+00 1.986357092857360840e+00 7.966582298278808594e+00
-4.830644130706787109e+00 1.991011619567871094e+00 7.157917976379394531e+00
-1.374696922302246094e+01 -4.204115271568298340e-01 2.040582656860351562e+01
-1.328578472137451172e+01 -3.343562185764312744e-01 2.403429603576660156e+01
-1.466415119171142578e+01 -1.169590204954147339e-01 1.984575462341308594e+01
-1.364683341979980469e+01 1.579225063323974609e-02 2.026539611816406250e+01
-1.334774494171142578e+01 1.552958190441131592e-01 2.415726661682128906e+01
-1.588439559936523438e+01 3.454975485801696777e-01 2.150551605224609375e+01
-1.350180053710937500e+01 4.638080000877380371e-01 2.209273719787597656e+01
-1.328365993499755859e+01 6.419188380241394043e-01 2.405208015441894531e+01
-1.584576988220214844e+01 8.175487518310546875e-01 2.146157646179199219e+01
-1.346204948425292969e+01 9.203669428825378418e-01 2.203705406188964844e+01
-1.295058631896972656e+01 1.183053493499755859e+00 2.609734916687011719e+01
-1.355191993713378906e+01 1.163660049438476562e+00 2.014621925354003906e+01
-1.367730712890625000e+01 1.400746941566467285e+00 2.239894485473632812e+01
-6.620189189910888672e+00 8.690428733825683594e-01 1.334704589843750000e+01
-1.351638984680175781e+01 1.590184926986694336e+00 2.010230445861816406e+01
-6.869040012359619141e+00 9.374761581420898438e-01 1.125401878356933594e+01
-6.666765213012695312e+00 1.140694022178649902e+00 1.344677448272705078e+01
-6.969762802124023438e+00 1.042339920997619629e+00 1.037002277374267578e+01
-6.713406085968017578e+00 1.228438496589660645e+00 1.217566776275634766e+01
-1.006275939941406250e+01 2.123577356338500977e+00 2.030615425109863281e+01
-6.969674587249755859e+00 1.263948321342468262e+00 1.037448406219482422e+01
-6.691024303436279297e+00 1.470205664634704590e+00 1.214052200317382812e+01
-6.755756378173828125e+00 1.732772946357727051e+00 1.226347827911376953e+01
-6.649052143096923828e+00 1.949823856353759766e+00 1.207519626617431641e+01
-6.456569194793701172e+00 1.981063127517700195e+00 1.060155582427978516e+01
-5.814188003540039062e+00 1.982038021087646484e+00 9.551202774047851562e+00
-5.308257102966308594e+00 1.990280985832214355e+00 8.723783493041992188e+00
-4.851091384887695312e+00 1.983912944793701172e+00 7.976147651672363281e+00
-4.801156997680664062e+00 1.989328622817993164e+00 7.170787811279296875e+00
-1.374506950378417969e+01 -4.231475293636322021e-01 2.054196739196777344e+01
-1.328717327117919922e+01 -3.372340798377990723e-01 2.421616554260253906e+01
-1.456386280059814453e+01 -1.174676865339279175e-01 1.984012794494628906e+01
-1.331410980224609375e+01 1.548587828874588013e-01 2.427623939514160156e+01
-1.589129829406738281e+01 3.462393879890441895e-01 2.165689849853515625e+01
-1.350703239440917969e+01 4.655146598815917969e-01 2.225814437866210938e+01
-1.330896568298339844e+01 6.458914875984191895e-01 2.427780723571777344e+01
-1.572980785369873047e+01 8.141594529151916504e-01 2.144518661499023438e+01
-1.346118354797363281e+01 9.241988062858581543e-01 2.219205093383789062e+01
-1.293916893005371094e+01 1.188556075096130371e+00 2.628136825561523438e+01
-1.353741359710693359e+01 1.167061686515808105e+00 2.026181602478027344e+01
-1.356444072723388672e+01 1.395499944686889648e+00 2.237182235717773438e+01
-6.609975337982177734e+00 8.727300167083740234e-01 1.343229675292968750e+01
-1.351526451110839844e+01 1.596711516380310059e+00 2.023765563964843750e+01
-6.870888710021972656e+00 9.421384930610656738e-01 1.133699035644531250e+01
-1.306944847106933594e+01 2.249468564987182617e+00 2.657031631469726562e+01
-1.350141429901123047e+01 2.027837753295898438e+00 2.022516441345214844e+01
-6.698095321655273438e+00 1.232193350791931152e+00 1.223867797851562500e+01
-9.976984977722167969e+00 2.118149042129516602e+00 2.029305458068847656e+01
-1.254216289520263672e+01 2.284456729888916016e+00 1.879655075073242188e+01
-6.693916320800781250e+00 1.478806138038635254e+00 1.223655509948730469e+01
-6.686749935150146484e+00 1.724443078041076660e+00 1.222896480560302734e+01
-6.589268207550048828e+00 1.942919015884399414e+00 1.205611801147460938e+01
-6.414062976837158203e+00 1.977810859680175781e+00 1.060663700103759766e+01
-5.786219596862792969e+00 1.982361316680908203e+00 9.572852134704589844e+00
-5.269686222076416016e+00 1.985731005668640137e+00 8.721994400024414062e+00
-4.826037883758544922e+00 1.983600258827209473e+00 7.991409778594970703e+00
-4.784030437469482422e+00 1.991287469863891602e+00 7.194010257720947266e+00
-1.373051261901855469e+01 -4.259949326515197754e-01 2.068382072448730469e+01
-1.330152893066406250e+01 -3.409647345542907715e-01 2.445442008972167969e+01
-1.444276905059814453e+01 -1.180211976170539856e-01 1.982708740234375000e+01
-1.363685894012451172e+01 1.416315883398056030e-02 2.055112648010253906e+01
-1.324033546447753906e+01 1.539486497640609741e-01 2.435299110412597656e+01
-1.589658164978027344e+01 3.470550477504730225e-01 2.183140563964843750e+01
-1.348621082305908203e+01 4.666013121604919434e-01 2.240859985351562500e+01
-1.321513557434082031e+01 6.445707678794860840e-01 2.431765937805175781e+01
-1.560170841217041016e+01 8.105678558349609375e-01 2.143483543395996094e+01
-1.343335056304931641e+01 9.268803000450134277e-01 2.233033180236816406e+01
-1.291024017333984375e+01 1.193639159202575684e+00 2.646695327758789062e+01
-1.351937198638916016e+01 1.170990347862243652e+00 2.039625930786132812e+01
-1.336608123779296875e+01 1.382447957992553711e+00 2.222803115844726562e+01
-6.608841419219970703e+00 8.785376548767089844e-01 1.355516910552978516e+01
-1.349063110351562500e+01 1.601654648780822754e+00 2.036197471618652344e+01
-1.345409774780273438e+01 1.855041027069091797e+00 2.238399314880371094e+01
-6.603078365325927734e+00 1.144441366195678711e+00 1.354928207397460938e+01
-6.952974796295166016e+00 1.049578666687011719e+00 1.049871444702148438e+01
-6.665566921234130859e+00 1.233931422233581543e+00 1.228595352172851562e+01
-6.602881908416748047e+00 1.411754131317138672e+00 1.355542850494384766e+01
-6.953856468200683594e+00 1.273101210594177246e+00 1.050472927093505859e+01
-6.649996280670166016e+00 1.478468775749206543e+00 1.226280784606933594e+01
-6.654210090637207031e+00 1.727086901664733887e+00 1.227613735198974609e+01
-6.520542621612548828e+00 1.935099959373474121e+00 1.203498649597167969e+01
-6.375178337097167969e+00 1.977326035499572754e+00 1.063014507293701172e+01
-5.751128196716308594e+00 1.981923818588256836e+00 9.594065666198730469e+00
-5.238725185394287109e+00 1.985714554786682129e+00 8.743005752563476562e+00
-4.801774501800537109e+00 1.985312938690185547e+00 8.017506599426269531e+00
-4.755517005920410156e+00 1.990053415298461914e+00 7.208313465118408203e+00
-1.370740032196044922e+01 -4.286108314990997314e-01 2.081414985656738281e+01
-1.327729892730712891e+01 -3.437543809413909912e-01 2.462445259094238281e+01
-1.433016872406005859e+01 -1.186370402574539185e-01 1.982477188110351562e+01
-1.361423301696777344e+01 1.325574517250061035e-02 2.068115234375000000e+01
-1.327529525756835938e+01 1.543039977550506592e-01 2.463199234008789062e+01
-1.340604972839355469e+01 4.656491875648498535e-01 2.246132659912109375e+01
-1.337343215942382812e+01 6.556163430213928223e-01 2.482538795471191406e+01
-1.546570491790771484e+01 8.065546751022338867e-01 2.141249465942382812e+01
-1.335860252380371094e+01 9.263578057289123535e-01 2.239146232604980469e+01
-1.287664699554443359e+01 1.198386192321777344e+00 2.664548301696777344e+01
-1.349942874908447266e+01 1.174815058708190918e+00 2.052917098999023438e+01
-1.335512924194335938e+01 1.388772726058959961e+00 2.239527511596679688e+01
-6.611236095428466797e+00 8.849177360534667969e-01 1.368720340728759766e+01
-1.348499774932861328e+01 1.608944654464721680e+00 2.051640510559082031e+01
-6.849945068359375000e+00 9.497404694557189941e-01 1.149164962768554688e+01
-6.609754085540771484e+00 1.153684735298156738e+00 1.369016742706298828e+01
-6.961527347564697266e+00 1.056229114532470703e+00 1.059579181671142578e+01
-6.679018974304199219e+00 1.244281291961669922e+00 1.241913032531738281e+01
-6.608567714691162109e+00 1.423087358474731445e+00 1.369436550140380859e+01
-6.960114955902099609e+00 1.280852913856506348e+00 1.059838390350341797e+01
-6.669067382812500000e+00 1.492248773574829102e+00 1.240627288818359375e+01
-6.715361595153808594e+00 1.754270553588867188e+00 1.249808216094970703e+01
-6.524207592010498047e+00 1.948836088180541992e+00 1.214784717559814453e+01
-6.340245246887207031e+00 1.978100776672363281e+00 1.066030025482177734e+01
-5.707908153533935547e+00 1.978695273399353027e+00 9.601608276367187500e+00
-5.203670024871826172e+00 1.984168648719787598e+00 8.757155418395996094e+00
-4.768393993377685547e+00 1.983285069465637207e+00 8.028393745422363281e+00
-4.723762035369873047e+00 1.987472295761108398e+00 7.217611789703369141e+00
-1.370323848724365234e+01 -4.313713312149047852e-01 2.095081520080566406e+01
-1.324516582489013672e+01 -3.458797931671142578e-01 2.475066375732421875e+01
-1.361158084869384766e+01 1.248744875192642212e-02 2.081923484802246094e+01
-1.328086376190185547e+01 1.543257236480712891e-01 2.482876968383789062e+01
-2.388732910156250000e+01 5.235082507133483887e-01 3.327909851074218750e+01
-1.335072040557861328e+01 4.653044342994689941e-01 2.252914810180664062e+01
-1.328878974914550781e+01 6.543412208557128906e-01 2.485495376586914062e+01
-1.535408878326416016e+01 8.033640384674072266e-01 2.139927673339843750e+01
-1.334932804107666016e+01 9.297396540641784668e-01 2.253652763366699219e+01
-1.291124534606933594e+01 1.208463788032531738e+00 2.693271255493164062e+01
-1.349387454986572266e+01 1.179150342941284180e+00 2.066183280944824219e+01
-1.334272766113281250e+01 1.393957018852233887e+00 2.253511619567871094e+01
-6.617396354675292969e+00 8.910259604454040527e-01 1.381056594848632812e+01
-1.347504901885986328e+01 1.614662051200866699e+00 2.064227485656738281e+01
-1.332485675811767578e+01 1.856398582458496094e+00 2.251466178894042969e+01
-6.621863365173339844e+00 1.162852883338928223e+00 1.382601070404052734e+01
-1.345453834533691406e+01 2.050365686416625977e+00 2.061935424804687500e+01
-6.704719543457031250e+00 1.255931496620178223e+00 1.256136131286621094e+01
-6.621422767639160156e+00 1.434683084487915039e+00 1.383184814453125000e+01
-1.221539497375488281e+01 2.258033990859985352e+00 1.872875022888183594e+01
-6.697486877441406250e+00 1.506940484046936035e+00 1.255355167388916016e+01
-6.680761337280273438e+00 1.755019187927246094e+00 1.252792739868164062e+01
-6.505602359771728516e+00 1.954247593879699707e+00 1.220504283905029297e+01
-6.306752681732177734e+00 1.977684736251831055e+00 1.068022537231445312e+01
-5.682749271392822266e+00 1.980064272880554199e+00 9.628032684326171875e+00
-5.174166679382324219e+00 1.983062267303466797e+00 8.770139694213867188e+00
-4.744170188903808594e+00 1.983387351036071777e+00 8.045081138610839844e+00
-4.701092243194580078e+00 1.987184643745422363e+00 7.232477188110351562e+00
-1.469420623779296875e+01 -5.731309652328491211e-01 2.061444854736328125e+01
-1.369383907318115234e+01 -4.344868063926696777e-01 2.110488510131835938e+01
-1.322933006286621094e+01 -3.489611744880676270e-01 2.494036483764648438e+01
-1.402429580688476562e+01 -1.189433932304382324e-01 1.968240737915039062e+01
-1.362551784515380859e+01 1.159626990556716919e-02 2.100825500488281250e+01
-1.327315902709960938e+01 1.541870534420013428e-01 2.503454399108886719e+01
-1.517868804931640625e+01 3.333512544631958008e-01 2.131093215942382812e+01
-1.535108470916748047e+01 5.371682643890380859e-01 2.612255859375000000e+01
-1.339985084533691406e+01 6.632426977157592773e-01 2.528512382507324219e+01
-1.525122261047363281e+01 8.010683059692382812e-01 2.142123603820800781e+01
-1.336384105682373047e+01 9.355171918869018555e-01 2.275078201293945312e+01
-1.284418773651123047e+01 1.210275411605834961e+00 2.704668617248535156e+01
-1.348107719421386719e+01 1.183721780776977539e+00 2.080843544006347656e+01
-1.332681083679199219e+01 1.399942278861999512e+00 2.269758605957031250e+01
-1.288692665100097656e+01 1.747410416603088379e+00 2.715003585815429688e+01
-1.345031547546386719e+01 1.619842648506164551e+00 2.077031135559082031e+01
-6.838243961334228516e+00 9.581053256988525391e-01 1.165162563323974609e+01
-1.275679779052734375e+01 2.256307840347290039e+00 2.688785743713378906e+01
-6.953177928924560547e+00 1.065101146697998047e+00 1.074171638488769531e+01
-1.178564643859863281e+01 2.221974134445190430e+00 2.227669906616210938e+01
-9.596253395080566406e+00 2.094414234161376953e+00 2.023623847961425781e+01
-6.948389053344726562e+00 1.291185140609741211e+00 1.073915576934814453e+01
-9.299396514892578125e+00 2.106069564819335938e+00 1.758538246154785156e+01
-6.660800933837890625e+00 1.761328577995300293e+00 1.260152721405029297e+01
-6.473809719085693359e+00 1.957620024681091309e+00 1.225338745117187500e+01
-6.272589206695556641e+00 1.978773117065429688e+00 1.071186161041259766e+01
-5.642482280731201172e+00 1.977882742881774902e+00 9.640368461608886719e+00
-5.144003391265869141e+00 1.983427762985229492e+00 8.792503356933593750e+00
-4.708759784698486328e+00 1.980528950691223145e+00 8.052351951599121094e+00
-4.668248176574707031e+00 1.984155297279357910e+00 7.239901542663574219e+00
-1.459314537048339844e+01 -5.731114745140075684e-01 2.063223075866699219e+01
-1.366184806823730469e+01 -4.369201958179473877e-01 2.122553634643554688e+01
-1.318063926696777344e+01 -3.512123227119445801e-01 2.507009506225585938e+01
-1.391627216339111328e+01 -1.195695698261260986e-01 1.968304634094238281e+01
-1.324086475372314453e+01 1.537639945745468140e-01 2.519633102416992188e+01
-1.510741329193115234e+01 3.324927985668182373e-01 2.137622833251953125e+01
-1.521900653839111328e+01 5.347077846527099609e-01 2.611646461486816406e+01
-1.340937805175781250e+01 6.672060489654541016e-01 2.552880096435546875e+01
-1.571359729766845703e+01 8.285778164863586426e-01 2.224276924133300781e+01
-1.332666301727294922e+01 9.377397894859313965e-01 2.287908935546875000e+01
-1.282155227661132812e+01 1.216358065605163574e+00 2.725636672973632812e+01
-1.346198749542236328e+01 1.187806963920593262e+00 2.094681739807128906e+01
-1.330184078216552734e+01 1.405067682266235352e+00 2.284643173217773438e+01
-6.569538116455078125e+00 8.971276879310607910e-01 1.397259712219238281e+01
-1.343561172485351562e+01 1.626321315765380859e+00 2.091523933410644531e+01
-1.327592945098876953e+01 1.870751738548278809e+00 2.281187248229980469e+01
-6.551763534545898438e+00 1.167235851287841797e+00 1.394104099273681641e+01
-1.341294860839843750e+01 2.065362453460693359e+00 2.088863754272460938e+01
-6.655065536499023438e+00 1.262887597084045410e+00 1.269142246246337891e+01
-6.553769588470458984e+00 1.440919876098632812e+00 1.395221042633056641e+01
-1.206388664245605469e+01 2.253682136535644531e+00 1.879617691040039062e+01
-6.629344463348388672e+00 1.511294007301330566e+00 1.264821529388427734e+01
-6.646839141845703125e+00 1.769349813461303711e+00 1.268745613098144531e+01
-6.432563781738281250e+00 1.958193421363830566e+00 1.228411960601806641e+01
-6.224394321441650391e+00 1.975453734397888184e+00 1.071947765350341797e+01
-5.603189468383789062e+00 1.976050496101379395e+00 9.654240608215332031e+00
-5.104880332946777344e+00 1.980353474617004395e+00 8.799482345581054688e+00
-4.685136318206787109e+00 1.982655405998229980e+00 8.079781532287597656e+00
-4.646965503692626953e+00 1.986063838005065918e+00 7.265243530273437500e+00
-1.462365913391113281e+01 -5.777180194854736328e-01 2.081374549865722656e+01
-1.365864086151123047e+01 -4.398092627525329590e-01 2.136774635314941406e+01
-1.318322181701660156e+01 -3.543555736541748047e-01 2.526739120483398438e+01
-1.386241531372070312e+01 -1.204383075237274170e-01 1.973811721801757812e+01
-1.360605144500732422e+01 9.874783456325531006e-03 2.129432106018066406e+01
-1.330684089660644531e+01 1.544898152351379395e-01 2.551621818542480469e+01
-1.589510154724121094e+01 3.504754602909088135e-01 2.264134597778320312e+01
-1.509683990478515625e+01 5.322800874710083008e-01 2.609492683410644531e+01
-1.378569126129150391e+01 6.890543103218078613e-01 2.644670486450195312e+01
-1.572289180755615234e+01 8.318673372268676758e-01 2.240495491027832031e+01
-1.332978153228759766e+01 9.421544671058654785e-01 2.305064010620117188e+01
-1.281023788452148438e+01 1.222435832023620605e+00 2.745591163635253906e+01
-1.344987392425537109e+01 1.191737055778503418e+00 2.107324028015136719e+01
-1.329498863220214844e+01 1.411074757575988770e+00 2.300053977966308594e+01
-6.586382865905761719e+00 9.049540162086486816e-01 1.412348079681396484e+01
-1.343426513671875000e+01 1.633320808410644531e+00 2.105834197998046875e+01
-6.805716991424560547e+00 9.637649655342102051e-01 1.177915191650390625e+01
-6.568616867065429688e+00 1.177590847015380859e+00 1.409173488616943359e+01
-6.916372299194335938e+00 1.069811224937438965e+00 1.084600257873535156e+01
-6.651967525482177734e+00 1.269424557685852051e+00 1.278299808502197266e+01
-6.558702945709228516e+00 1.451191306114196777e+00 1.407746601104736328e+01
-6.907258510589599609e+00 1.296281456947326660e+00 1.083662700653076172e+01
-6.648336887359619141e+00 1.524279117584228516e+00 1.278195381164550781e+01
-6.642683029174804688e+00 1.778426885604858398e+00 1.277701282501220703e+01
-6.407667160034179688e+00 1.961919903755187988e+00 1.233068561553955078e+01
-6.193675518035888672e+00 1.975981354713439941e+00 1.074417304992675781e+01
-5.575810909271240234e+00 1.976721167564392090e+00 9.676976203918457031e+00
-5.077239513397216797e+00 1.980011820793151855e+00 8.815536499023437500e+00
-4.641213417053222656e+00 1.974452137947082520e+00 8.062306404113769531e+00
-4.616832256317138672e+00 1.982634186744689941e+00 7.268350601196289062e+00
-1.364340877532958984e+01 -4.428485631942749023e-01 2.151728630065917969e+01
-1.317503166198730469e+01 -3.577718734741210938e-01 2.547895431518554688e+01
-1.377283000946044922e+01 -1.212204769253730774e-01 1.976417350769042969e+01
-1.356860256195068359e+01 8.916415274143218994e-03 2.140823936462402344e+01
-1.319487285614013672e+01 1.531442254781723022e-01 2.552928543090820312e+01
-1.376821994781494141e+01 3.042423725128173828e-01 1.976541519165039062e+01
-1.497424411773681641e+01 5.301470160484313965e-01 2.610326766967773438e+01
-1.368317604064941406e+01 6.876040101051330566e-01 2.648641586303710938e+01
-1.376956081390380859e+01 7.314172387123107910e-01 1.977523422241210938e+01
-1.330587577819824219e+01 9.454197287559509277e-01 2.320514106750488281e+01
-1.277912521362304688e+01 1.227927207946777344e+00 2.765328598022460938e+01
-1.343668556213378906e+01 1.196471691131591797e+00 2.122370910644531250e+01
-1.327816009521484375e+01 1.417241215705871582e+00 2.316699028015136719e+01
-1.275605678558349609e+01 1.765345215797424316e+00 2.761719322204589844e+01
-1.340824794769287109e+01 1.638607263565063477e+00 2.118844413757324219e+01
-6.812102317810058594e+00 9.702943563461303711e-01 1.189060211181640625e+01
-6.559578895568847656e+00 1.184677720069885254e+00 1.420809936523437500e+01
-1.340477371215820312e+01 2.084441423416137695e+00 2.119182205200195312e+01
-6.660798549652099609e+00 1.279558420181274414e+00 1.291534900665283203e+01
-6.549640655517578125e+00 1.460064888000488281e+00 1.419367408752441406e+01
-1.191447067260742188e+01 2.248052835464477539e+00 1.884436416625976562e+01
-6.656148433685302734e+00 1.536332726478576660e+00 1.291235923767089844e+01
-7.430433273315429688e+00 2.002818822860717773e+00 1.442113304138183594e+01
-6.334354877471923828e+00 1.952708005905151367e+00 1.229957962036132812e+01
-6.158208847045898438e+00 1.976753711700439453e+00 1.077373027801513672e+01
-5.535454273223876953e+00 1.974540710449218750e+00 9.688867568969726562e+00
-5.042981147766113281e+00 1.978848695755004883e+00 8.830747604370117188e+00
-4.627182960510253906e+00 1.980729699134826660e+00 8.106518745422363281e+00
-4.594349861145019531e+00 1.984093189239501953e+00 7.291890144348144531e+00
-1.407867431640625000e+01 -5.634197592735290527e-01 2.033084297180175781e+01
-1.363221263885498047e+01 -4.455460309982299805e-01 2.164970970153808594e+01
-1.313965797424316406e+01 -3.599650859832763672e-01 2.560739135742187500e+01
-1.372091674804687500e+01 -1.221110373735427856e-01 1.982213973999023438e+01
-1.356520462036132812e+01 8.107282221317291260e-03 2.155231475830078125e+01
-1.319766902923583984e+01 1.531384885311126709e-01 2.573255538940429688e+01
-1.369582271575927734e+01 3.032163381576538086e-01 1.979377937316894531e+01
-1.484467697143554688e+01 5.274476408958435059e-01 2.606678581237792969e+01
-1.329434967041015625e+01 6.711716651916503906e-01 2.593322753906250000e+01
-1.368122577667236328e+01 7.292234301567077637e-01 1.978059768676757812e+01
-1.327643203735351562e+01 9.476258754730224609e-01 2.332328605651855469e+01
-1.277879905700683594e+01 1.235268235206604004e+00 2.788226509094238281e+01
-1.342100334167480469e+01 1.200196027755737305e+00 2.134702873229980469e+01
-1.326262187957763672e+01 1.422487854957580566e+00 2.330931282043457031e+01
-1.275823593139648438e+01 1.776707887649536133e+00 2.785141563415527344e+01
-1.339686203002929688e+01 1.644547343254089355e+00 2.131838035583496094e+01
-1.326047801971435547e+01 1.898298621177673340e+00 2.331583595275878906e+01
-6.540666103363037109e+00 1.188826918601989746e+00 1.428488445281982422e+01
-6.884829044342041016e+00 1.075504183769226074e+00 1.096040821075439453e+01
-1.132714939117431641e+01 2.188479900360107422e+00 2.213385963439941406e+01
-6.529900074005126953e+00 1.465114474296569824e+00 1.426854705810546875e+01
-6.878878116607666016e+00 1.303975701332092285e+00 1.095594310760498047e+01
-8.977761268615722656e+00 2.084237575531005859e+00 1.755125999450683594e+01
-7.367049217224121094e+00 1.997371792793273926e+00 1.440911960601806641e+01
-6.311032295227050781e+00 1.956991791725158691e+00 1.234945678710937500e+01
-6.122411251068115234e+00 1.975707292556762695e+00 1.078964710235595703e+01
-5.505017280578613281e+00 1.974165678024291992e+00 9.706269264221191406e+00
-5.016210556030273438e+00 1.978888750076293945e+00 8.848315238952636719e+00
-4.589182853698730469e+00 1.975019693374633789e+00 8.098947525024414062e+00
-4.561109542846679688e+00 1.979318737983703613e+00 7.289824962615966797e+00
-1.787985992431640625e+01 -7.205764055252075195e-01 2.602333831787109375e+01
-1.361844539642333984e+01 -4.487082958221435547e-01 2.180466651916503906e+01
-1.311641693115234375e+01 -3.630551397800445557e-01 2.579440498352050781e+01
-1.355179214477539062e+01 7.148183882236480713e-03 2.170707130432128906e+01
-1.313680171966552734e+01 1.523889601230621338e-01 2.584672546386718750e+01
-1.365488529205322266e+01 3.029870688915252686e-01 1.989001464843750000e+01
-1.467334556579589844e+01 5.235694646835327148e-01 2.598695564270019531e+01
-1.311953258514404297e+01 6.659789681434631348e-01 2.582493019104003906e+01
-1.365276622772216797e+01 7.306525111198425293e-01 1.989491653442382812e+01
-1.326848983764648438e+01 9.521422982215881348e-01 2.350933265686035156e+01
-1.274509811401367188e+01 1.240732669830322266e+00 2.807999420166015625e+01
-1.340083503723144531e+01 1.204437494277954102e+00 2.148935127258300781e+01
-1.324680233001708984e+01 1.428951263427734375e+00 2.348131942749023438e+01
-6.578402042388916016e+00 9.228712320327758789e-01 1.450087642669677734e+01
-1.347068691253662109e+01 1.662324547767639160e+00 2.161128425598144531e+01
-6.779057502746582031e+00 9.762105345726013184e-01 1.202190876007080078e+01
-6.553351879119873047e+00 1.200122714042663574e+00 1.445228862762451172e+01
-1.344684219360351562e+01 2.111924409866333008e+00 2.158213233947753906e+01
-6.632249355316162109e+00 1.290064573287963867e+00 1.307774353027343750e+01
-6.539237976074218750e+00 1.478434562683105469e+00 1.442846775054931641e+01
-1.171341609954833984e+01 2.232602357864379883e+00 1.880862236022949219e+01
-6.605923175811767578e+00 1.544098734855651855e+00 1.303197574615478516e+01
-7.305251598358154297e+00 1.994285702705383301e+00 1.441838836669921875e+01
-6.269339561462402344e+00 1.957563281059265137e+00 1.237964153289794922e+01
-6.076078891754150391e+00 1.973019242286682129e+00 1.080003547668457031e+01
-5.470403671264648438e+00 1.974076151847839355e+00 9.728168487548828125e+00
-4.982817649841308594e+00 1.978107690811157227e+00 8.864999771118164062e+00
-4.565250396728515625e+00 1.977144598960876465e+00 8.126018524169921875e+00
-4.541587352752685547e+00 1.982122898101806641e+00 7.318156719207763672e+00
-1.759401893615722656e+01 -7.140754461288452148e-01 2.580945777893066406e+01
-1.360267257690429688e+01 -4.518458247184753418e-01 2.195811080932617188e+01
-1.311807823181152344e+01 -3.668876290321350098e-01 2.603338623046875000e+01
-1.365070724487304688e+01 -1.246685683727264404e-01 2.003290367126464844e+01
-1.359007263183593750e+01 6.202913820743560791e-03 2.194703674316406250e+01
-1.305278396606445312e+01 1.513725221157073975e-01 2.591613960266113281e+01
-1.348733234405517578e+01 2.999486625194549561e-01 1.980109596252441406e+01
-1.507130622863769531e+01 5.400751829147338867e-01 2.692174148559570312e+01
-1.305088043212890625e+01 6.661692857742309570e-01 2.592465591430664062e+01
-1.422894477844238281e+01 7.646008133888244629e-01 2.089830017089843750e+01
-1.323300743103027344e+01 9.547445178031921387e-01 2.364854049682617188e+01
-1.271831226348876953e+01 1.246987104415893555e+00 2.829607582092285156e+01
-1.338506126403808594e+01 1.209144592285156250e+00 2.164030456542968750e+01
-1.322502231597900391e+01 1.434874534606933594e+00 2.364480590820312500e+01
-6.513772487640380859e+00 9.206244349479675293e-01 1.449942398071289062e+01
-1.344389247894287109e+01 1.667840123176574707e+00 2.174544715881347656e+01
-6.764173507690429688e+00 9.798997640609741211e-01 1.209894847869873047e+01
-6.561629772186279297e+00 1.210803031921386719e+00 1.461270236968994141e+01
-6.873493194580078125e+00 1.085414052009582520e+00 1.112256050109863281e+01
-6.622763633728027344e+00 1.297020912170410156e+00 1.317855644226074219e+01
-6.556459903717041016e+00 1.493786334991455078e+00 1.460863208770751953e+01
-6.850716590881347656e+00 1.312986969947814941e+00 1.109081363677978516e+01
-6.615276813507080078e+00 1.556971073150634766e+00 1.316990280151367188e+01
-7.242593765258789062e+00 1.990955948829650879e+00 1.442562294006347656e+01
-6.205304145812988281e+00 1.951151609420776367e+00 1.236543464660644531e+01
-6.034563064575195312e+00 1.971903920173645020e+00 1.081885242462158203e+01
-5.430908679962158203e+00 1.972245097160339355e+00 9.741342544555664062e+00
-4.950325489044189453e+00 1.977708458900451660e+00 8.883273124694824219e+00
-4.526901245117187500e+00 1.973044157028198242e+00 8.127384185791015625e+00
-4.512724399566650391e+00 1.980889558792114258e+00 7.331503868103027344e+00
-1.359019756317138672e+01 -4.546031653881072998e-01 2.209269714355468750e+01
-1.311045360565185547e+01 -3.699662685394287109e-01 2.622291946411132812e+01
-1.370204830169677734e+01 -1.265304684638977051e-01 2.024462318420410156e+01
-1.357134437561035156e+01 5.358479917049407959e-03 2.207139968872070312e+01
-1.492920780181884766e+01 1.730935275554656982e-01 2.987499046325683594e+01
-1.343739318847656250e+01 2.994267344474792480e-01 1.986159896850585938e+01
-1.326838207244873047e+01 4.772340357303619385e-01 2.387686347961425781e+01
-1.303371429443359375e+01 6.684889197349548340e-01 2.609433555603027344e+01
-1.413635826110839844e+01 7.623108625411987305e-01 2.090317726135253906e+01
-1.322272300720214844e+01 9.584758281707763672e-01 2.380534362792968750e+01
-1.270747566223144531e+01 1.253643631935119629e+00 2.851115417480468750e+01
-1.337662410736083984e+01 1.213699698448181152e+00 2.177931594848632812e+01
-1.321565246582031250e+01 1.441045522689819336e+00 2.380326843261718750e+01
-6.534827709197998047e+00 9.295643568038940430e-01 1.466940116882324219e+01
-1.340372943878173828e+01 1.670497417449951172e+00 2.183354759216308594e+01
-6.777452945709228516e+00 9.869045019149780273e-01 1.221262264251708984e+01
-6.548158645629882812e+00 1.216289043426513672e+00 1.470615482330322266e+01
-1.343417453765869141e+01 2.131415843963623047e+00 2.189244270324707031e+01
-6.636468410491943359e+00 1.307381391525268555e+00 1.330988025665283203e+01
-6.543753147125244141e+00 1.500859260559082031e+00 1.470379638671875000e+01
-1.154045391082763672e+01 2.222379684448242188e+00 1.881512260437011719e+01
-6.638657093048095703e+00 1.571807265281677246e+00 1.332061576843261719e+01
-7.183992862701416016e+00 1.986739754676818848e+00 1.442171478271484375e+01
-6.169103622436523438e+00 1.951522350311279297e+00 1.239024543762207031e+01
-6.003443717956542969e+00 1.972429990768432617e+00 1.084300136566162109e+01
-5.397446155548095703e+00 1.970824956893920898e+00 9.753246307373046875e+00
-4.917670726776123047e+00 1.975457787513732910e+00 8.890251159667968750e+00
-4.501374244689941406e+00 1.972730994224548340e+00 8.141625404357910156e+00
-4.490714550018310547e+00 1.981049656867980957e+00 7.347368717193603516e+00
-1.357370090484619141e+01 -4.577946066856384277e-01 2.224817657470703125e+01
-1.307106971740722656e+01 -3.727411627769470215e-01 2.638546752929687500e+01
-1.367792987823486328e+01 -1.279485970735549927e-01 2.036941719055175781e+01
-1.355908966064453125e+01 4.368074238300323486e-03 2.223368453979492188e+01
-1.301719760894775391e+01 1.508857309818267822e-01 2.628936576843261719e+01
-1.321456432342529297e+01 4.773813486099243164e-01 2.398665046691894531e+01
-1.301072788238525391e+01 6.710913181304931641e-01 2.628889846801757812e+01
-1.396276283264160156e+01 7.560840249061584473e-01 2.081044960021972656e+01
-1.321349811553955078e+01 9.630986452102661133e-01 2.399549865722656250e+01
-1.268118286132812500e+01 1.260190486907958984e+00 2.873492240905761719e+01
-1.335701179504394531e+01 1.218198537826538086e+00 2.192719268798828125e+01
-1.319672584533691406e+01 1.447476148605346680e+00 2.397582054138183594e+01
-6.497151851654052734e+00 9.312410950660705566e-01 1.472982215881347656e+01
-1.339318656921386719e+01 1.678209781646728516e+00 2.199679565429687500e+01
-6.717278003692626953e+00 9.841018319129943848e-01 1.220944786071777344e+01
-1.158616161346435547e+01 2.168810367584228516e+00 2.627950477600097656e+01
-6.845329284667968750e+00 1.092069625854492188e+00 1.124747943878173828e+01
-1.093031597137451172e+01 2.168247938156127930e+00 2.212417030334472656e+01
-8.924538612365722656e+00 2.063040733337402344e+00 2.025291061401367188e+01
-6.838195323944091797e+00 1.324258089065551758e+00 1.124097824096679688e+01
-8.706871986389160156e+00 2.075994014739990234e+00 1.763212013244628906e+01
-7.131121158599853516e+00 1.986105084419250488e+00 1.444801902770996094e+01
-6.129816532135009766e+00 1.952931046485900879e+00 1.242527580261230469e+01
-5.961794853210449219e+00 1.971314668655395508e+00 1.086153888702392578e+01
-5.362642765045166016e+00 1.970735192298889160e+00 9.774761199951171875e+00
-4.884142398834228516e+00 1.974676847457885742e+00 8.906564712524414062e+00
-4.473417282104492188e+00 1.973195195198059082e+00 8.161570549011230469e+00
-4.467828750610351562e+00 1.982506275177001953e+00 7.370516300201416016e+00
-1.538667964935302734e+01 -6.373432278633117676e-01 2.308716964721679688e+01
-1.355107116699218750e+01 -4.608201682567596436e-01 2.239527702331542969e+01
-1.307736968994140625e+01 -3.768722116947174072e-01 2.664322662353515625e+01
-1.357878780364990234e+01 -1.286703646183013916e-01 2.038278770446777344e+01
-1.354686260223388672e+01 3.367118537425994873e-03 2.239789009094238281e+01
-1.461910057067871094e+01 1.694109886884689331e-01 2.979869270324707031e+01
-1.434559726715087891e+01 3.211642503738403320e-01 2.154256439208984375e+01
-1.326938819885253906e+01 4.814876317977905273e-01 2.429643630981445312e+01
-1.299089050292968750e+01 6.739087700843811035e-01 2.649261856079101562e+01
-1.394401264190673828e+01 7.582429051399230957e-01 2.094804191589355469e+01
-1.318390083312988281e+01 9.663044214248657227e-01 2.415081787109375000e+01
-1.265261840820312500e+01 1.266641736030578613e+00 2.895704841613769531e+01
-1.333856296539306641e+01 1.222877264022827148e+00 2.207863807678222656e+01
-1.317192745208740234e+01 1.453367590904235840e+00 2.413978958129882812e+01
-6.489486217498779297e+00 9.373005032539367676e-01 1.485969638824462891e+01
-6.856394767761230469e+00 8.638166785240173340e-01 1.135433578491210938e+01
-6.736503601074218750e+00 9.929886460304260254e-01 1.235136795043945312e+01
-6.484108448028564453e+00 1.223298430442810059e+00 1.485437297821044922e+01
-6.849398136138916016e+00 1.098825097084045410e+00 1.134761333465576172e+01
-6.581691265106201172e+00 1.314783573150634766e+00 1.344594478607177734e+01
-6.477255821228027344e+00 1.509238362312316895e+00 1.484638500213623047e+01
-6.860706806182861328e+00 1.336156129837036133e+00 1.137165260314941406e+01
-6.574105262756347656e+00 1.578610539436340332e+00 1.343692302703857422e+01
-7.055480480194091797e+00 1.979110598564147949e+00 1.442776584625244141e+01
-6.074702262878417969e+00 1.949315547943115234e+00 1.242815589904785156e+01
-5.919147014617919922e+00 1.969885349273681641e+00 1.087818241119384766e+01
-5.321168422698974609e+00 1.968208909034729004e+00 9.784038543701171875e+00
-4.852436542510986328e+00 1.974659442901611328e+00 8.926202774047851562e+00
-4.440704345703125000e+00 1.971585512161254883e+00 8.172824859619140625e+00
-4.431779384613037109e+00 1.978134870529174805e+00 7.371878147125244141e+00
-1.523791790008544922e+01 -6.350935101509094238e-01 2.302032661437988281e+01
-1.355479431152343750e+01 -4.642372727394104004e-01 2.256114006042480469e+01
-1.309954071044921875e+01 -3.809553384780883789e-01 2.690172195434570312e+01
-1.364712142944335938e+01 -1.307550370693206787e-01 2.062549018859863281e+01
-1.348055267333984375e+01 2.490274608135223389e-03 2.244719314575195312e+01
-1.448866176605224609e+01 1.678642332553863525e-01 2.976894569396972656e+01
-1.361813163757324219e+01 3.055021762847900391e-01 2.059005737304687500e+01
-1.319967651367187500e+01 4.807982146739959717e-01 2.435032272338867188e+01
-1.296883869171142578e+01 6.761043667793273926e-01 2.665917968750000000e+01
-1.359701251983642578e+01 7.420616149902343750e-01 2.056652832031250000e+01
-1.317654132843017578e+01 9.704267382621765137e-01 2.431867599487304688e+01
-1.263151264190673828e+01 1.272616863250732422e+00 2.915806007385253906e+01
-1.333595371246337891e+01 1.228163838386535645e+00 2.223182487487792969e+01
-1.317118740081787109e+01 1.460774660110473633e+00 2.431983375549316406e+01
-6.483247280120849609e+00 9.426354169845581055e-01 1.497348594665527344e+01
-6.844307899475097656e+00 8.663597702980041504e-01 1.141521453857421875e+01
-6.729024887084960938e+00 9.971591830253601074e-01 1.243039703369140625e+01
-6.476242065429687500e+00 1.230123043060302734e+00 1.496438980102539062e+01
-1.497791481018066406e+01 2.414455652236938477e+00 2.499152183532714844e+01
-6.587304592132568359e+00 1.323898196220397949e+00 1.356516742706298828e+01
-6.463810920715332031e+00 1.516481280326843262e+00 1.494347000122070312e+01
-1.128563880920410156e+01 2.208705902099609375e+00 1.883956336975097656e+01
-6.577913284301757812e+00 1.589226245880126953e+00 1.355239105224609375e+01
-6.988488674163818359e+00 1.972454667091369629e+00 1.440527153015136719e+01
-6.047753334045410156e+00 1.952754497528076172e+00 1.247218513488769531e+01
-5.884032726287841797e+00 1.969154119491577148e+00 1.089504623413085938e+01
-5.286691665649414062e+00 1.966441869735717773e+00 9.793834686279296875e+00
-4.816941261291503906e+00 1.971265316009521484e+00 8.927639961242675781e+00
-4.413177967071533203e+00 1.970442891120910645e+00 8.183349609375000000e+00
-4.408626556396484375e+00 1.977846384048461914e+00 7.385825157165527344e+00
-1.512709617614746094e+01 -6.350610852241516113e-01 2.303588485717773438e+01
-1.353547096252441406e+01 -4.674588441848754883e-01 2.271715736389160156e+01
-1.299737644195556641e+01 -3.820321857929229736e-01 2.694233131408691406e+01
-1.368447589874267578e+01 -1.328137964010238647e-01 2.084757423400878906e+01
-1.346062088012695312e+01 1.472480595111846924e-03 2.260126686096191406e+01
-1.432908248901367188e+01 1.659760773181915283e-01 2.971736717224121094e+01
-1.389786338806152344e+01 5.085246562957763672e-01 2.586412048339843750e+01
-1.295005226135253906e+01 6.790785193443298340e-01 2.687046241760253906e+01
-1.355993080139160156e+01 7.432060837745666504e-01 2.067475700378417969e+01
-1.315070533752441406e+01 9.740328788757324219e-01 2.448481750488281250e+01
-1.261201572418212891e+01 1.280239105224609375e+00 2.940806961059570312e+01
-1.331160163879394531e+01 1.232444882392883301e+00 2.237674522399902344e+01
-1.314056205749511719e+01 1.466222882270812988e+00 2.447709655761718750e+01
-6.473179817199707031e+00 9.485625028610229492e-01 1.510178565979003906e+01
-6.834059715270996094e+00 8.698636889457702637e-01 1.149343109130859375e+01
-6.723058223724365234e+00 1.002511382102966309e+00 1.252884578704833984e+01
-6.465355873107910156e+00 1.237901210784912109e+00 1.509072780609130859e+01
-6.824989795684814453e+00 1.106446862220764160e+00 1.148313999176025391e+01
-6.591116428375244141e+00 1.334143638610839844e+00 1.370057868957519531e+01
-6.467031002044677734e+00 1.529558897018432617e+00 1.510258007049560547e+01
-6.815711021423339844e+00 1.341592907905578613e+00 1.147292137145996094e+01
-6.589421749114990234e+00 1.603524804115295410e+00 1.370373344421386719e+01
-6.911602020263671875e+00 1.964978933334350586e+00 1.438076400756835938e+01
-5.999460697174072266e+00 1.951371431350708008e+00 1.248898124694824219e+01
-5.839434146881103516e+00 1.967097043991088867e+00 1.090790176391601562e+01
-5.247076034545898438e+00 1.964612722396850586e+00 9.806268692016601562e+00
-4.790701866149902344e+00 1.973536491394042969e+00 8.957423210144042969e+00
-4.384109973907470703e+00 1.970491886138916016e+00 8.201267242431640625e+00
-4.377587795257568359e+00 1.975717306137084961e+00 7.395295143127441406e+00
-1.501095676422119141e+01 -6.341344118118286133e-01 2.301628303527832031e+01
-1.352003192901611328e+01 -4.702940583229064941e-01 2.285420989990234375e+01
-1.300849342346191406e+01 -3.858850896358489990e-01 2.718325042724609375e+01
-1.363639068603515625e+01 -1.338169127702713013e-01 2.091726112365722656e+01
-1.344249057769775391e+01 5.920976400375366211e-04 2.273295974731445312e+01
-1.419596385955810547e+01 1.644019782543182373e-01 2.967924308776855469e+01
-1.376920413970947266e+01 3.102884292602539062e-01 2.112964630126953125e+01
-1.377044296264648438e+01 5.058414340019226074e-01 2.582120895385742188e+01
-1.293457984924316406e+01 6.817071437835693359e-01 2.705534934997558594e+01
-1.374806594848632812e+01 7.563071250915527344e-01 2.110589218139648438e+01
-1.314707565307617188e+01 9.785548448562622070e-01 2.466361618041992188e+01
-1.260246753692626953e+01 1.287625908851623535e+00 2.964252853393554688e+01
-1.330729579925537109e+01 1.237713456153869629e+00 2.253029632568359375e+01
-1.313218116760253906e+01 1.472976446151733398e+00 2.464697074890136719e+01
-6.465543270111083984e+00 9.538826942443847656e-01 1.521579647064208984e+01
-6.832429885864257812e+00 8.738269209861755371e-01 1.157330322265625000e+01
-6.740886211395263672e+00 1.010608553886413574e+00 1.265734958648681641e+01
-6.453018665313720703e+00 1.244110345840454102e+00 1.519360542297363281e+01
-1.054760742187500000e+01 2.148208379745483398e+00 2.210217666625976562e+01
-6.456927299499511719e+00 1.537899732589721680e+00 1.521085643768310547e+01
-1.113800430297851562e+01 2.203309774398803711e+00 1.888352203369140625e+01
-8.380542755126953125e+00 2.052147626876831055e+00 1.756976509094238281e+01
-6.829686641693115234e+00 1.953930854797363281e+00 1.432541847229003906e+01
-5.951705932617187500e+00 1.948114752769470215e+00 1.248994922637939453e+01
-5.795897960662841797e+00 1.963540673255920410e+00 1.090881061553955078e+01
-5.206110954284667969e+00 1.960411667823791504e+00 9.803631782531738281e+00
-4.757042884826660156e+00 1.970905661582946777e+00 8.962084770202636719e+00
-4.351933002471923828e+00 1.967276692390441895e+00 8.202960968017578125e+00
-4.353374004364013672e+00 1.974980831146240234e+00 7.407390594482421875e+00
-1.488630485534667969e+01 -6.334939599037170410e-01 2.300900459289550781e+01
-1.350396633148193359e+01 -4.737121164798736572e-01 2.301915168762207031e+01
-1.297216510772705078e+01 -3.889736235141754150e-01 2.736445426940917969e+01
-1.360742473602294922e+01 -1.352639347314834595e-01 2.104098510742187500e+01
-1.343091297149658203e+01 -4.445686936378479004e-04 2.290456771850585938e+01
