# .PCD v0.7 - Point Cloud Data file format
VERSION 0.7
FIELDS x y z
SIZE 4 4 4
TYPE F F F
COUNT 1 1 1
WIDTH 628
HEIGHT 1
VIEWPOINT 0 0 0 1 0 0 0
POINTS 628
DATA ascii
-1.344052886962890625e+01 1.555507183074951172e-01 2.895193099975585938e+01
-1.568274116516113281e+01 3.562127947807312012e-01 2.468305397033691406e+01
-1.323370265960693359e+01 4.933349788188934326e-01 2.551839065551757812e+01
-1.315821743011474609e+01 7.067881822586059570e-01 2.835797309875488281e+01
-1.472267150878906250e+01 8.211928606033325195e-01 2.318165969848632812e+01
-1.317031669616699219e+01 9.984605908393859863e-01 2.540799713134765625e+01
-1.262842273712158203e+01 1.322181105613708496e+00 3.068029212951660156e+01
-1.331093311309814453e+01 1.259467482566833496e+00 2.314112854003906250e+01
-6.708113193511962891e+00 7.672882676124572754e-01 1.294723415374755859e+01
-6.431957244873046875e+00 9.733312129974365234e-01 1.563466930389404297e+01
-6.804159641265869141e+00 8.859006166458129883e-01 1.183473587036132812e+01
-6.698371887207031250e+00 1.024695277214050293e+00 1.293445873260498047e+01
-6.431612491607666016e+00 1.272527933120727539e+00 1.564150238037109375e+01
-1.278065299987792969e+01 2.120549678802490234e+00 2.223966789245605469e+01
-6.531995296478271484e+00 1.361414551734924316e+00 1.410326099395751953e+01
-6.453205108642578125e+00 1.577867269515991211e+00 1.570251464843750000e+01
-1.004564476013183594e+01 2.024433135986328125e+00 1.748884010314941406e+01
-6.526629924774169922e+00 1.635893464088439941e+00 1.409871673583984375e+01
-6.322565555572509766e+00 1.851864099502563477e+00 1.366472339630126953e+01
-5.580596923828125000e+00 1.870339155197143555e+00 1.206715583801269531e+01
-5.467784881591796875e+00 1.892053246498107910e+00 1.058372688293457031e+01
-4.931189537048339844e+00 1.896819949150085449e+00 9.549912452697753906e+00
-4.514025688171386719e+00 1.910576939582824707e+00 8.746082305908203125e+00
-4.153203487396240234e+00 1.918073177337646484e+00 8.051055908203125000e+00
-4.163296222686767578e+00 1.925559639930725098e+00 7.274557113647460938e+00
-1.350926208496093750e+01 -9.903734326362609863e-01 2.931148338317871094e+01
-1.467189884185791016e+01 -6.384166479110717773e-01 2.323376655578613281e+01
-1.348036956787109375e+01 -4.851395189762115479e-01 2.356888961791992188e+01
-1.298678016662597656e+01 -4.023537635803222656e-01 2.819197273254394531e+01
-1.444600105285644531e+01 -1.492565572261810303e-01 2.288560295104980469e+01
-1.313538742065429688e+01 1.519944369792938232e-01 2.852894783020019531e+01
-1.555070209503173828e+01 3.539963364601135254e-01 2.464595222473144531e+01
-1.317086505889892578e+01 4.930160045623779297e-01 2.559363555908203125e+01
-1.299719142913818359e+01 7.018499374389648438e-01 2.824298095703125000e+01
-1.476602935791015625e+01 8.267835378646850586e-01 2.341212654113769531e+01
-1.315261936187744141e+01 1.002232551574707031e+00 2.557014083862304688e+01
-1.262333679199218750e+01 1.330688357353210449e+00 3.094374847412109375e+01
-1.330060005187988281e+01 1.264503717422485352e+00 2.329216575622558594e+01
-6.693902015686035156e+00 7.698421478271484375e-01 1.301977825164794922e+01
-6.420516014099121094e+00 9.785045385360717773e-01 1.574727439880371094e+01
-6.808511734008789062e+00 8.908787369728088379e-01 1.192888069152832031e+01
-6.713345527648925781e+00 1.032761096954345703e+00 1.306371212005615234e+01
-6.410309791564941406e+00 1.277506351470947266e+00 1.573000526428222656e+01
-6.804288387298583984e+00 1.134705543518066406e+00 1.192675018310546875e+01
-6.540071487426757812e+00 1.371879816055297852e+00 1.423781585693359375e+01
-6.412130355834960938e+00 1.579329133033752441e+00 1.574304580688476562e+01
-6.796819210052490234e+00 1.376792430877685547e+00 1.191938591003417969e+01
-6.522165298461914062e+00 1.645418167114257812e+00 1.420596599578857422e+01
-6.279633045196533203e+00 1.851355433464050293e+00 1.368457412719726562e+01
-5.517917156219482422e+00 1.861533403396606445e+00 1.203067874908447266e+01
-5.431833267211914062e+00 1.890710473060607910e+00 1.059563732147216797e+01
-4.897598266601562500e+00 1.895067214965820312e+00 9.558403968811035156e+00
-4.489239215850830078e+00 1.911388039588928223e+00 8.765521049499511719e+00
-4.119001865386962891e+00 1.913625597953796387e+00 8.046704292297363281e+00
-4.141412258148193359e+00 1.925725460052490234e+00 7.289353847503662109e+00
-1.350715065002441406e+01 -9.994462728500366211e-01 2.959172058105468750e+01
-1.445502853393554688e+01 -6.337187886238098145e-01 2.307724380493164062e+01
-1.345308017730712891e+01 -4.883530139923095703e-01 2.372248649597167969e+01
-1.303526496887207031e+01 -4.083358347415924072e-01 2.857232093811035156e+01
-1.431851196289062500e+01 -1.498570144176483154e-01 2.286888885498046875e+01
-1.340733623504638672e+01 -4.718683660030364990e-03 2.365228652954101562e+01
-1.355350112915039062e+01 1.568041443824768066e-01 2.972332763671875000e+01
-1.532235336303710938e+01 3.497113883495330811e-01 2.448241424560546875e+01
-1.355576515197753906e+01 5.098920464515686035e-01 2.658055877685546875e+01
-1.295496749877929688e+01 7.039586305618286133e-01 2.842508888244628906e+01
-1.456775283813476562e+01 8.193823099136352539e-01 2.328646850585937500e+01
-1.313417530059814453e+01 1.006876468658447266e+00 2.576601409912109375e+01
-1.259215164184570312e+01 1.338115692138671875e+00 3.119369697570800781e+01
-1.328406620025634766e+01 1.270038843154907227e+00 2.346249198913574219e+01
-6.679699897766113281e+00 7.731488943099975586e-01 1.311009502410888672e+01
-6.418805599212646484e+00 9.864451289176940918e-01 1.590961074829101562e+01
-6.808994770050048828e+00 8.961616158485412598e-01 1.203194904327392578e+01
-1.373105716705322266e+01 2.126336097717285156e+00 2.696232604980468750e+01
-6.413052558898925781e+00 1.288980245590209961e+00 1.590326023101806641e+01
-6.798822402954101562e+00 1.140587806701660156e+00 1.201930904388427734e+01
-6.546443462371826172e+00 1.383642435073852539e+00 1.439050102233886719e+01
-6.440023422241210938e+00 1.599927425384521484e+00 1.597890758514404297e+01
-6.816773414611816406e+00 1.389228224754333496e+00 1.205686664581298828e+01
-6.502191066741943359e+00 1.652964234352111816e+00 1.430044746398925781e+01
-6.253283977508544922e+00 1.857837915420532227e+00 1.375997257232666016e+01
-5.452521800994873047e+00 1.853771328926086426e+00 1.200400447845458984e+01
-5.380468845367431641e+00 1.885851740837097168e+00 1.059088802337646484e+01
-4.866131305694580078e+00 1.896034121513366699e+00 9.583382606506347656e+00
-4.451782703399658203e+00 1.908714413642883301e+00 8.771478652954101562e+00
-4.090399265289306641e+00 1.913683772087097168e+00 8.063560485839843750e+00
-4.120440006256103516e+00 1.928082585334777832e+00 7.314743041992187500e+00
-1.427537822723388672e+01 -6.305867433547973633e-01 2.297719001770019531e+01
-1.344542312622070312e+01 -4.923300147056579590e-01 2.391279983520507812e+01
-1.296174240112304688e+01 -4.105650782585144043e-01 2.868914222717285156e+01
-1.417445755004882812e+01 -1.502726376056671143e-01 2.282436180114746094e+01
-1.346166419982910156e+01 -5.846828222274780273e-03 2.395232963562011719e+01
-1.291769409179687500e+01 1.494227498769760132e-01 2.860624694824218750e+01
-1.519139385223388672e+01 3.476426303386688232e-01 2.447215270996093750e+01
-1.476251220703125000e+01 5.580173134803771973e-01 2.921081352233886719e+01
-1.293872833251953125e+01 7.075399756431579590e-01 2.866740798950195312e+01
-1.447283744812011719e+01 8.177739977836608887e-01 2.332444381713867188e+01
-1.310996532440185547e+01 1.011159658432006836e+00 2.595317077636718750e+01
-1.256226921081542969e+01 1.345843434333801270e+00 3.145125389099121094e+01
-1.325374889373779297e+01 1.274340271949768066e+00 2.361036682128906250e+01
-6.661325454711914062e+00 7.760302424430847168e-01 1.319335079193115234e+01
-6.400444507598876953e+00 9.919645190238952637e-01 1.603320312500000000e+01
-1.324749660491943359e+01 1.753872275352478027e+00 2.361068916320800781e+01
-6.651598930358886719e+00 1.036929249763488770e+00 1.318032646179199219e+01
-6.396873950958251953e+00 1.296845316886901855e+00 1.603228759765625000e+01
-1.244479751586914062e+01 2.100396156311035156e+00 2.218995475769042969e+01
-9.164805412292480469e+00 1.951913237571716309e+00 2.034371566772460938e+01
-6.390295028686523438e+00 1.601466894149780273e+00 1.602465820312500000e+01
-9.744315147399902344e+00 1.998029947280883789e+00 1.738323974609375000e+01
-6.484878063201904297e+00 1.661340951919555664e+00 1.440222930908203125e+01
-6.173514366149902344e+00 1.848460674285888672e+00 1.371769809722900391e+01
-5.416644573211669922e+00 1.856035351753234863e+00 1.204203701019287109e+01
-5.345199584960937500e+00 1.886637806892395020e+00 1.061766147613525391e+01
-4.830120086669921875e+00 1.895263552665710449e+00 9.599461555480957031e+00
-4.425810813903808594e+00 1.910993456840515137e+00 8.800083160400390625e+00
-4.067000389099121094e+00 1.916226148605346680e+00 8.090804100036621094e+00
-4.084129810333251953e+00 1.923277139663696289e+00 7.312845706939697266e+00
-1.418632125854492188e+01 -6.307454109191894531e-01 2.299467468261718750e+01
-1.344040107727050781e+01 -4.958416819572448730e-01 2.408062362670898438e+01
-1.292551326751708984e+01 -4.133547544479370117e-01 2.885015869140625000e+01
-1.404494857788085938e+01 -1.505531370639801025e-01 2.277514457702636719e+01
-1.295446014404296875e+01 1.498273015022277832e-01 2.892961692810058594e+01
-1.507666873931884766e+01 3.458118736743927002e-01 2.445848083496093750e+01
-1.326340198516845703e+01 5.034909844398498535e-01 2.645058441162109375e+01
-1.291478061676025391e+01 7.101150155067443848e-01 2.885576057434082031e+01
-1.419710922241210938e+01 8.053735494613647461e-01 2.304133605957031250e+01
-1.310361671447753906e+01 1.016011357307434082e+00 2.614435958862304688e+01
-1.255094051361083984e+01 1.354142069816589355e+00 3.171172523498535156e+01
-1.325440883636474609e+01 1.280664205551147461e+00 2.378629875183105469e+01
-6.651167392730712891e+00 7.791994810104370117e-01 1.327673530578613281e+01
-6.391922950744628906e+00 9.979173541069030762e-01 1.615909385681152344e+01
-6.772612571716308594e+00 9.012275934219360352e-01 1.216002464294433594e+01
-6.677170753479003906e+00 1.046935439109802246e+00 1.333498382568359375e+01
-6.398558616638183594e+00 1.306896209716796875e+00 1.618402671813964844e+01
-6.771185398101806641e+00 1.148792624473571777e+00 1.216290855407714844e+01
-6.474390983581542969e+00 1.388060092926025391e+00 1.449302959442138672e+01
-6.388247013092041016e+00 1.613080859184265137e+00 1.616694259643554688e+01
-6.758783817291259766e+00 1.393204927444458008e+00 1.214655017852783203e+01
-7.276508808135986328e+00 1.876643061637878418e+00 1.629691886901855469e+01
-6.141741752624511719e+00 1.851366281509399414e+00 1.376245975494384766e+01
-5.403017997741699219e+00 1.863939046859741211e+00 1.211331272125244141e+01
-5.310079574584960938e+00 1.885609626770019531e+00 1.063092422485351562e+01
-4.787649631500244141e+00 1.890038490295410156e+00 9.589974403381347656e+00
-4.391157627105712891e+00 1.907614231109619141e+00 8.799947738647460938e+00
-4.034603595733642578e+00 1.912608623504638672e+00 8.089591979980468750e+00
-4.065889358520507812e+00 1.925232768058776855e+00 7.334223747253417969e+00
-1.400488662719726562e+01 -6.274528503417968750e-01 2.288787841796875000e+01
-1.341788387298583984e+01 -4.993746876716613770e-01 2.424868202209472656e+01
-1.294295310974121094e+01 -4.185877144336700439e-01 2.917518043518066406e+01
-1.388311672210693359e+01 -1.507487893104553223e-01 2.269850349426269531e+01
-1.342125892639160156e+01 -7.922716438770294189e-03 2.426566696166992188e+01
-1.356174182891845703e+01 1.568271964788436890e-01 3.058581733703613281e+01
-1.493790435791015625e+01 3.435615897178649902e-01 2.443338775634765625e+01
-1.317349815368652344e+01 5.025970935821533203e-01 2.651336097717285156e+01
-1.286889934539794922e+01 7.121862769126892090e-01 2.903820037841796875e+01
-1.406045913696289062e+01 8.013454675674438477e-01 2.300795173645019531e+01
-1.308062934875488281e+01 1.020547509193420410e+00 2.633904075622558594e+01
-1.252063369750976562e+01 1.362152218818664551e+00 3.197714424133300781e+01
-1.322995758056640625e+01 1.285697102546691895e+00 2.394842910766601562e+01
-6.638885498046875000e+00 7.829082012176513672e-01 1.337439918518066406e+01
-6.379242420196533203e+00 1.004566192626953125e+00 1.630144882202148438e+01
-1.322642612457275391e+01 1.770624637603759766e+00 2.395376586914062500e+01
-6.365375041961669922e+00 1.311599493026733398e+00 1.627428245544433594e+01
-6.471223354339599609e+00 1.398231387138366699e+00 1.462968063354492188e+01
-6.376106739044189453e+00 1.624402642250061035e+00 1.631086540222167969e+01
-9.619104385375976562e+00 1.995181083679199219e+00 1.743709373474121094e+01
-7.207110881805419922e+00 1.873430490493774414e+00 1.630171585083007812e+01
-6.083267211914062500e+00 1.848334193229675293e+00 1.376678657531738281e+01
-5.357015609741210938e+00 1.862859487533569336e+00 1.212947845458984375e+01
-5.271987915039062500e+00 1.885455012321472168e+00 1.065215301513671875e+01
-4.753373622894287109e+00 1.889963507652282715e+00 9.609290122985839844e+00
-4.358906745910644531e+00 1.907226920127868652e+00 8.816049575805664062e+00
-4.008426666259765625e+00 1.913908004760742188e+00 8.111410140991210938e+00
-4.039012908935546875e+00 1.924903512001037598e+00 7.349145412445068359e+00
-1.388411426544189453e+01 -6.261512041091918945e-01 2.285142898559570312e+01
-1.340420913696289062e+01 -5.026541948318481445e-01 2.440462303161621094e+01
-1.291242694854736328e+01 -4.216647744178771973e-01 2.935480308532714844e+01
-1.381589317321777344e+01 -1.516858786344528198e-01 2.274883651733398438e+01
-1.337576580047607422e+01 -8.876711130142211914e-03 2.436381149291992188e+01
-1.345271492004394531e+01 1.555475592613220215e-01 3.059898185729980469e+01
-1.563734436035156250e+01 3.604977428913116455e-01 2.575892257690429688e+01
-1.343497753143310547e+01 5.148108601570129395e-01 2.725414466857910156e+01
-1.286691188812255859e+01 7.160819172859191895e-01 2.928169822692871094e+01
-1.395182609558105469e+01 7.983648777008056641e-01 2.299221611022949219e+01
-1.307557773590087891e+01 1.025652527809143066e+00 2.653781700134277344e+01
-1.251048278808593750e+01 1.370893001556396484e+00 3.224925231933593750e+01
-1.323344230651855469e+01 1.292468547821044922e+00 2.413355255126953125e+01
-6.638321876525878906e+00 7.873229384422302246e-01 1.347942638397216797e+01
-6.370601654052734375e+00 1.010731816291809082e+00 1.643128013610839844e+01
-6.755904674530029297e+00 9.091190099716186523e-01 1.232666397094726562e+01
-6.624171733856201172e+00 1.051860690116882324e+00 1.345716285705566406e+01
-6.353872776031494141e+00 1.319238901138305664e+00 1.639652061462402344e+01
-6.741906166076660156e+00 1.156980395317077637e+00 1.230668544769287109e+01
-6.468466758728027344e+00 1.407091140747070312e+00 1.474851131439208984e+01
-6.372327327728271484e+00 1.635998487472534180e+00 1.645342826843261719e+01
-6.749588489532470703e+00 1.407538175582885742e+00 1.232676887512207031e+01
-7.142315387725830078e+00 1.869275212287902832e+00 1.629336357116699219e+01
-6.028862953186035156e+00 1.844413638114929199e+00 1.376042938232421875e+01
-5.318117141723632812e+00 1.862133145332336426e+00 1.214448928833007812e+01
-5.227206707000732422e+00 1.880980968475341797e+00 1.064566993713378906e+01
-4.726660251617431641e+00 1.890990138053894043e+00 9.631306648254394531e+00
-4.328622341156005859e+00 1.905752778053283691e+00 8.824470520019531250e+00
-3.977783203125000000e+00 1.911119580268859863e+00 8.113479614257812500e+00
-4.013131618499755859e+00 1.923279047012329102e+00 7.356722831726074219e+00
-1.377446174621582031e+01 -6.260244250297546387e-01 2.285932350158691406e+01
-1.340264320373535156e+01 -5.070765018463134766e-01 2.461513900756835938e+01
-1.372210502624511719e+01 -1.526119709014892578e-01 2.278217887878417969e+01
-1.401681327819824219e+01 -1.051676273345947266e-02 2.575477790832519531e+01
-1.331334304809570312e+01 1.539159268140792847e-01 3.058573532104492188e+01
-1.329990577697753906e+01 5.122617483139038086e-01 2.723134231567382812e+01
-1.283370399475097656e+01 7.189767956733703613e-01 2.949919891357421875e+01
-1.383139991760253906e+01 7.952387332916259766e-01 2.298327255249023438e+01
-1.305540847778320312e+01 1.030578136444091797e+00 2.674366378784179688e+01
-6.356842994689941406e+00 7.025284171104431152e-01 1.656633758544921875e+01
-1.320885181427001953e+01 1.297667503356933594e+00 2.429953765869140625e+01
-1.304902839660644531e+01 1.558089137077331543e+00 2.674352264404296875e+01
-6.374702930450439453e+00 1.020337224006652832e+00 1.662234306335449219e+01
-6.740233898162841797e+00 9.125657677650451660e-01 1.240573883056640625e+01
-6.616802215576171875e+00 1.057981848716735840e+00 1.356746196746826172e+01
-6.365854263305664062e+00 1.333650350570678711e+00 1.660783386230468750e+01
-6.735776424407958984e+00 1.163164019584655762e+00 1.240316867828369141e+01
-6.459626197814941406e+00 1.416374325752258301e+00 1.487634086608886719e+01
-6.359741210937500000e+00 1.647669911384582520e+00 1.660132980346679688e+01
-6.724324703216552734e+00 1.411169886589050293e+00 1.238820457458496094e+01
-7.066744804382324219e+00 1.864395499229431152e+00 1.628300285339355469e+01
-5.983949661254882812e+00 1.845526814460754395e+00 1.379524803161621094e+01
-5.283842563629150391e+00 1.865225791931152344e+00 1.218758869171142578e+01
-5.192506313323974609e+00 1.882079839706420898e+00 1.067370510101318359e+01
-4.695666790008544922e+00 1.892302870750427246e+00 9.657488822937011719e+00
-4.297140121459960938e+00 1.905745983123779297e+00 8.842110633850097656e+00
-3.948906183242797852e+00 1.911177277565002441e+00 8.129833221435546875e+00
-3.985245943069458008e+00 1.922502398490905762e+00 7.369736194610595703e+00
-1.367006683349609375e+01 -6.261290311813354492e-01 2.287530517578125000e+01
-1.338166618347167969e+01 -5.108247399330139160e-01 2.479253196716308594e+01
-1.288613414764404297e+01 -4.305157065391540527e-01 2.988753318786621094e+01
-1.360672092437744141e+01 -1.532943397760391235e-01 2.277908515930175781e+01
-1.388909244537353516e+01 -1.164127886295318604e-02 2.574436759948730469e+01
-1.317266845703125000e+01 1.522714048624038696e-01 3.056820869445800781e+01
-1.359348869323730469e+01 3.151434361934661865e-01 2.276668739318847656e+01
-1.316518306732177734e+01 5.097187161445617676e-01 2.720792198181152344e+01
-1.280856323242187500e+01 7.223923802375793457e-01 2.973888778686523438e+01
-1.360467720031738281e+01 7.859619855880737305e-01 2.279522514343261719e+01
-1.302955341339111328e+01 1.035144090652465820e+00 2.694071769714355469e+01
-6.332969665527343750e+00 7.059400081634521484e-01 1.668670654296875000e+01
-1.318416976928710938e+01 1.302949190139770508e+00 2.446742630004882812e+01
-1.302049160003662109e+01 1.565276384353637695e+00 2.693507766723632812e+01
-6.373947143554687500e+00 1.029357075691223145e+00 1.680432128906250000e+01
-1.313584232330322266e+01 1.789469957351684570e+00 2.438985443115234375e+01
-6.612184047698974609e+00 1.064654350280761719e+00 1.368507289886474609e+01
-6.372836589813232422e+00 1.347299098968505859e+00 1.681013107299804688e+01
-1.188492870330810547e+01 2.065310001373291016e+00 2.207731628417968750e+01
-6.452296257019042969e+00 1.426170349121093750e+00 1.500979328155517578e+01
-6.987545967102050781e+00 1.827035069465637207e+00 1.844217300415039062e+01
-9.392704010009765625e+00 1.983784437179565430e+00 1.745645332336425781e+01
-6.990561485290527344e+00 1.859309911727905273e+00 1.627048301696777344e+01
-5.937295913696289062e+00 1.846151828765869141e+00 1.382627296447753906e+01
-5.239169120788574219e+00 1.864702105522155762e+00 1.220693969726562500e+01
-5.149094104766845703e+00 1.880046367645263672e+00 1.068383407592773438e+01
-4.659416198730468750e+00 1.891532778739929199e+00 9.672928810119628906e+00
-4.263031482696533203e+00 1.904597640037536621e+00 8.854331016540527344e+00
-3.917417526245117188e+00 1.909993767738342285e+00 8.140792846679687500e+00
-3.956397771835327148e+00 1.921278476715087891e+00 7.380925655364990234e+00
-1.359710979461669922e+01 -6.269760131835937500e-01 2.291639518737792969e+01
-1.353509330749511719e+01 -1.541845500469207764e-01 2.282171440124511719e+01
-1.340880298614501953e+01 -1.226174831390380859e-02 2.504205703735351562e+01
-1.303886413574218750e+01 1.507106721401214600e-01 3.052116394042968750e+01
-1.355250167846679688e+01 3.149648606777191162e-01 2.286089515686035156e+01
-1.340588855743408203e+01 5.213857889175415039e-01 2.792881202697753906e+01
-1.279517555236816406e+01 7.258413434028625488e-01 2.996656608581542969e+01
-1.361250495910644531e+01 7.896828055381774902e-01 2.297202491760253906e+01
-1.302528190612792969e+01 1.040556907653808594e+00 2.714914512634277344e+01
-6.333270072937011719e+00 7.112610340118408203e-01 1.684683799743652344e+01
-1.325423622131347656e+01 1.316612482070922852e+00 2.478358840942382812e+01
-1.300924015045166016e+01 1.573142647743225098e+00 2.712897300720214844e+01
-6.356254100799560547e+00 1.034465193748474121e+00 1.691775131225585938e+01
-6.722468376159667969e+00 9.206839203834533691e-01 1.257636070251464844e+01
-6.594182968139648438e+00 1.068191885948181152e+00 1.375798416137695312e+01
-6.350866317749023438e+00 1.353266119956970215e+00 1.691226387023925781e+01
-6.729197025299072266e+00 1.175755500793457031e+00 1.259472370147705078e+01
-6.444186687469482422e+00 1.434310913085937500e+00 1.512167930603027344e+01
-6.982782840728759766e+00 1.840386152267456055e+00 1.860579109191894531e+01
-6.718636989593505859e+00 1.426864266395568848e+00 1.258123683929443359e+01
-6.918395042419433594e+00 1.853074669837951660e+00 1.624301147460937500e+01
-5.892303466796875000e+00 1.845156311988830566e+00 1.384125995635986328e+01
-5.186864852905273438e+00 1.859250068664550781e+00 1.219059085845947266e+01
-5.119792461395263672e+00 1.881211042404174805e+00 1.070892620086669922e+01
-4.623087882995605469e+00 1.888741493225097656e+00 9.675135612487792969e+00
-4.236067295074462891e+00 1.904646158218383789e+00 8.869509696960449219e+00
-3.891850709915161133e+00 1.909688591957092285e+00 8.153118133544921875e+00
-3.933218002319335938e+00 1.920996308326721191e+00 7.393377304077148438e+00
-1.355459308624267578e+01 -6.299514770507812500e-01 2.303670501708984375e+01
-1.337483310699462891e+01 -5.191796422004699707e-01 2.518854522705078125e+01
-1.346149730682373047e+01 -1.553405374288558960e-01 2.288839912414550781e+01
-1.336475181579589844e+01 -1.342675834894180298e-02 2.518112945556640625e+01
-1.292613983154296875e+01 1.493932157754898071e-01 3.056690788269042969e+01
-1.346153640747070312e+01 3.137587904930114746e-01 2.289835548400878906e+01
-1.300804519653320312e+01 5.086145997047424316e-01 2.735652732849121094e+01
-1.277479457855224609e+01 7.296699881553649902e-01 3.022508621215820312e+01
-1.344315624237060547e+01 7.836775779724121094e-01 2.287700843811035156e+01
-1.299606418609619141e+01 1.045027494430541992e+00 2.734477233886718750e+01
-6.326508998870849609e+00 7.167855501174926758e-01 1.701794242858886719e+01
-1.322883510589599609e+01 1.322053074836730957e+00 2.495560455322265625e+01
-6.588566303253173828e+00 8.022572994232177734e-01 1.386969852447509766e+01
-6.335949897766113281e+00 1.040606617927551270e+00 1.705327415466308594e+01
-6.714656829833984375e+00 9.254031181335449219e-01 1.267325496673583984e+01
-6.574539184570312500e+00 1.072616577148437500e+00 1.384698104858398438e+01
-6.333990573883056641e+00 1.362260937690734863e+00 1.705700111389160156e+01
-6.714727878570556641e+00 1.180771470069885254e+00 1.267923545837402344e+01
-6.439081668853759766e+00 1.444958448410034180e+00 1.526457309722900391e+01
-6.906953334808349609e+00 1.837576150894165039e+00 1.861078643798828125e+01
-6.718123912811279297e+00 1.436054944992065430e+00 1.269201183319091797e+01
-6.579887866973876953e+00 1.777039766311645508e+00 1.560666847229003906e+01
-5.842335700988769531e+00 1.844806671142578125e+00 1.386465835571289062e+01
-5.131418228149414062e+00 1.854837417602539062e+00 1.218403053283691406e+01
-5.083076000213623047e+00 1.881682276725769043e+00 1.073304176330566406e+01
-4.591841220855712891e+00 1.890053272247314453e+00 9.700984001159667969e+00
-4.204402923583984375e+00 1.904639124870300293e+00 8.886817932128906250e+00
-3.861137628555297852e+00 1.908918976783752441e+00 8.165626525878906250e+00
-3.903397798538208008e+00 1.919325590133666992e+00 7.402639389038085938e+00
-1.353253650665283203e+01 -6.339250802993774414e-01 2.319327735900878906e+01
-1.332432937622070312e+01 -5.219430327415466309e-01 2.531700515747070312e+01
-1.338255786895751953e+01 -1.564396619796752930e-01 2.294621276855468750e+01
-1.335710716247558594e+01 -1.464091241359710693e-02 2.539101219177246094e+01
-1.308584690093994141e+01 1.512261927127838135e-01 3.126348114013671875e+01
-1.336242103576660156e+01 3.123650550842285156e-01 2.292163276672363281e+01
-1.316759777069091797e+01 5.176374316215515137e-01 2.795580863952636719e+01
-1.274265575408935547e+01 7.329035997390747070e-01 3.045987701416015625e+01
-1.346793746948242188e+01 7.890061736106872559e-01 2.311269569396972656e+01
-1.297325134277343750e+01 1.050105214118957520e+00 2.755682373046875000e+01
-6.309614658355712891e+00 7.212731242179870605e-01 1.716484069824218750e+01
-1.321536064147949219e+01 1.328790307044982910e+00 2.515252876281738281e+01
-6.581072330474853516e+00 8.069700002670288086e-01 1.398594856262207031e+01
-6.314737319946289062e+00 1.046738982200622559e+00 1.718887519836425781e+01
-1.315448188781738281e+01 1.824452757835388184e+00 2.504928970336914062e+01
-6.576408863067626953e+00 1.080663204193115234e+00 1.398295688629150391e+01
-6.311327457427978516e+00 1.370200991630554199e+00 1.718873977661132812e+01
-1.160224437713623047e+01 2.053475141525268555e+00 2.210369873046875000e+01
-6.429176807403564453e+00 1.454727292060852051e+00 1.539844036102294922e+01
-6.814714908599853516e+00 1.830345511436462402e+00 1.857060623168945312e+01
-9.155864715576171875e+00 1.970018982887268066e+00 1.745184135437011719e+01
-6.511184215545654297e+00 1.773242712020874023e+00 1.560320758819580078e+01
-5.795333385467529297e+00 1.845430254936218262e+00 1.389520454406738281e+01
-5.083710670471191406e+00 1.853205204010009766e+00 1.219550991058349609e+01
-5.026957035064697266e+00 1.874956011772155762e+00 1.071589851379394531e+01
-4.552105426788330078e+00 1.887896299362182617e+00 9.708898544311523438e+00
-4.166002750396728516e+00 1.901589393615722656e+00 8.889790534973144531e+00
-3.823745250701904297e+00 1.904841780662536621e+00 8.163843154907226562e+00
-3.867242336273193359e+00 1.914526343345642090e+00 7.399687767028808594e+00
-3.602228641510009766e+00 1.920541524887084961e+00 6.896351337432861328e+00
-1.352574729919433594e+01 -6.379467844963073730e-01 2.334984397888183594e+01
-1.333082008361816406e+01 -5.263068079948425293e-01 2.552356147766113281e+01
-1.327032089233398438e+01 -1.568581163883209229e-01 2.291890525817871094e+01
-1.332263088226318359e+01 -1.566166430711746216e-02 2.551972007751464844e+01
-1.276148223876953125e+01 1.474684476852416992e-01 3.075948524475097656e+01
-1.324928092956542969e+01 3.105112612247467041e-01 2.289253997802734375e+01
-1.306109714508056641e+01 5.158578753471374512e-01 2.795719337463378906e+01
-1.273575782775878906e+01 7.369287014007568359e-01 3.071403312683105469e+01
-1.374865150451660156e+01 8.088985085487365723e-01 2.376575660705566406e+01
-1.296190166473388672e+01 1.055203437805175781e+00 2.775866127014160156e+01
-6.297371387481689453e+00 7.254602909088134766e-01 1.729915046691894531e+01
-1.324159622192382812e+01 1.338475823402404785e+00 2.539590835571289062e+01
-6.574282169342041016e+00 8.110328316688537598e-01 1.408621215820312500e+01
-6.303048133850097656e+00 1.053193807601928711e+00 1.732499694824218750e+01
-6.680845737457275391e+00 9.316874146461486816e-01 1.281961059570312500e+01
-6.563672065734863281e+00 1.085301160812377930e+00 1.407048034667968750e+01
-6.298211097717285156e+00 1.378534078598022461e+00 1.732098388671875000e+01
-6.676193237304687500e+00 1.188245773315429688e+00 1.281664943695068359e+01
-6.421934127807617188e+00 1.463539719581604004e+00 1.551802062988281250e+01
-6.418992519378662109e+00 1.738314390182495117e+00 1.766359710693359375e+01
-6.672061443328857422e+00 1.443755745887756348e+00 1.281520843505859375e+01
-6.453796863555908203e+00 1.770377397537231445e+00 1.560342121124267578e+01
-5.750162124633789062e+00 1.844435095787048340e+00 1.390972995758056641e+01
-5.045400142669677734e+00 1.852758765220642090e+00 1.221147632598876953e+01
-5.000794887542724609e+00 1.877371668815612793e+00 1.074781513214111328e+01
-4.522439956665039062e+00 1.887880682945251465e+00 9.724995613098144531e+00
-4.140564441680908203e+00 1.902398347854614258e+00 8.908233642578125000e+00
-3.800579309463500977e+00 1.905777335166931152e+00 8.181198120117187500e+00
-3.851183891296386719e+00 1.917820334434509277e+00 7.425703525543212891e+00
-3.583253383636474609e+00 1.921716809272766113e+00 6.912864685058593750e+00
-1.351675033569335938e+01 -6.426504254341125488e-01 2.353273773193359375e+01
-1.329968833923339844e+01 -5.299305319786071777e-01 2.569298553466796875e+01
-1.343219089508056641e+01 -1.608415842056274414e-01 2.339578819274902344e+01
-1.325382709503173828e+01 -1.682596653699874878e-02 2.561633682250976562e+01
-1.299429893493652344e+01 1.501496881246566772e-01 3.164785194396972656e+01
-1.317624664306640625e+01 3.097316324710845947e-01 2.296003723144531250e+01
-1.317437744140625000e+01 5.232127308845520020e-01 2.847130775451660156e+01
-1.270965671539306641e+01 7.406611442565917969e-01 3.097140884399414062e+01
-1.294064426422119141e+01 1.060597538948059082e+00 2.798018074035644531e+01
-6.277926445007324219e+00 7.298499345779418945e-01 1.744436454772949219e+01
-1.320990371704101562e+01 1.343598961830139160e+00 2.556323242187500000e+01
-6.575423240661621094e+00 8.169800043106079102e-01 1.422445774078369141e+01
-6.283452987670898438e+00 1.059877991676330566e+00 1.747014808654785156e+01
-6.692449569702148438e+00 9.393460154533386230e-01 1.295753574371337891e+01
-6.565634250640869141e+00 1.093609809875488281e+00 1.421039581298828125e+01
-6.281262874603271484e+00 1.388096928596496582e+00 1.747350311279296875e+01
-6.686799526214599609e+00 1.197997570037841797e+00 1.295265865325927734e+01
-6.401287555694580078e+00 1.471208214759826660e+00 1.563000869750976562e+01
-6.340100765228271484e+00 1.733708500862121582e+00 1.764770698547363281e+01
-6.682562351226806641e+00 1.455710768699645996e+00 1.295104503631591797e+01
-6.385292530059814453e+00 1.766584992408752441e+00 1.559941959381103516e+01
-5.690154075622558594e+00 1.840923547744750977e+00 1.390872859954833984e+01
-4.990896701812744141e+00 1.848628401756286621e+00 1.220612049102783203e+01
-4.954785823822021484e+00 1.874402165412902832e+00 1.075178623199462891e+01
-4.484325408935546875e+00 1.886417984962463379e+00 9.736205101013183594e+00
-4.101349830627441406e+00 1.898969769477844238e+00 8.909149169921875000e+00
-3.760785579681396484e+00 1.900461912155151367e+00 8.173808097839355469e+00
-3.816844224929809570e+00 1.913916230201721191e+00 7.425966739654541016e+00
-3.558811664581298828e+00 1.921889424324035645e+00 6.927747249603271484e+00
-1.349175167083740234e+01 -6.466551423072814941e-01 2.368981552124023438e+01
-1.325471401214599609e+01 -5.330513119697570801e-01 2.583761405944824219e+01
-1.329491043090820312e+01 -1.814547181129455566e-02 2.592813301086425781e+01
-1.280218887329101562e+01 1.479227691888809204e-01 3.150812721252441406e+01
-1.390402221679687500e+01 3.278395533561706543e-01 2.443522262573242188e+01
-1.296747684478759766e+01 5.178834199905395508e-01 2.829581642150878906e+01
-1.267657089233398438e+01 7.440667152404785156e-01 3.121603393554687500e+01
-1.337050628662109375e+01 7.946445941925048828e-01 2.350798034667968750e+01
-1.291127777099609375e+01 1.065426707267761230e+00 2.818737602233886719e+01
-6.260180473327636719e+00 7.345439195632934570e-01 1.759720039367675781e+01
-1.309429168701171875e+01 1.340229511260986328e+00 2.556884574890136719e+01
-6.568155765533447266e+00 8.219808340072631836e-01 1.434655570983886719e+01
-6.288965702056884766e+00 1.070994734764099121e+00 1.768876075744628906e+01
-1.306706047058105469e+01 1.846067428588867188e+00 2.552873802185058594e+01
-6.558355808258056641e+00 1.100515127182006836e+00 1.433236980438232422e+01
-6.280643463134765625e+00 1.401523590087890625e+00 1.767498970031738281e+01
-1.124314498901367188e+01 2.027745008468627930e+00 2.197575378417968750e+01
-6.380655288696289062e+00 1.479042768478393555e+00 1.574389839172363281e+01
-6.276073455810546875e+00 1.733155250549316406e+00 1.767276382446289062e+01
-8.921064376831054688e+00 1.956476807594299316e+00 1.744596290588378906e+01
-6.319145202636718750e+00 1.763419866561889648e+00 1.560065746307373047e+01
-5.641405105590820312e+00 1.841060638427734375e+00 1.393507575988769531e+01
-4.946899890899658203e+00 1.848386287689208984e+00 1.222623252868652344e+01
-4.913736820220947266e+00 1.873310089111328125e+00 1.076634597778320312e+01
-4.446190357208251953e+00 1.884955644607543945e+00 9.747266769409179688e+00
-4.073587894439697266e+00 1.900863766670227051e+00 8.934907913208007812e+00
-3.735701799392700195e+00 1.902586698532104492e+00 8.198289871215820312e+00
-3.796711444854736328e+00 1.917161822319030762e+00 7.453870773315429688e+00
-3.531666755676269531e+00 1.920624732971191406e+00 6.937352180480957031e+00
-1.348712253570556641e+01 -6.509439945220947266e-01 2.385563850402832031e+01
-1.326781654357910156e+01 -5.378556251525878906e-01 2.606444358825683594e+01
-1.327688121795654297e+01 -1.922056078910827637e-02 2.609454345703125000e+01
-1.271883583068847656e+01 1.469552665948867798e-01 3.158715248107910156e+01
-1.339048671722412109e+01 3.165696561336517334e-01 2.370566749572753906e+01
-1.302167224884033203e+01 5.225760936737060547e-01 2.865137863159179688e+01
-1.266728973388671875e+01 7.481754422187805176e-01 3.147646331787109375e+01
-1.334967803955078125e+01 7.969034910202026367e-01 2.364389801025390625e+01
-1.290534973144531250e+01 1.071241140365600586e+00 2.840981674194335938e+01
-1.625245666503906250e+01 1.922344207763671875e+00 4.614373397827148438e+01
-1.307637310028076172e+01 1.345686793327331543e+00 2.573278617858886719e+01
-6.570131778717041016e+00 8.273745775222778320e-01 1.447080421447753906e+01
-6.271171569824218750e+00 1.076851129531860352e+00 1.781582069396972656e+01
-6.605032920837402344e+00 9.384082555770874023e-01 1.300462913513183594e+01
-6.563607215881347656e+00 1.108476161956787109e+00 1.446376228332519531e+01
-6.252245426177978516e+00 1.406998634338378906e+00 1.777181434631347656e+01
-6.632807254791259766e+00 1.203151464462280273e+00 1.306549263000488281e+01
-6.386136054992675781e+00 1.491301178932189941e+00 1.590073204040527344e+01
-6.208658695220947266e+00 1.729211688041687012e+00 1.765863037109375000e+01
-6.629420280456542969e+00 1.462392330169677734e+00 1.306554126739501953e+01
-6.259016036987304688e+00 1.759726524353027344e+00 1.559279632568359375e+01
-5.587277889251708984e+00 1.837150216102600098e+00 1.392699241638183594e+01
-4.893750190734863281e+00 1.842390656471252441e+00 1.220500183105468750e+01
-4.879917144775390625e+00 1.872910141944885254e+00 1.078178691864013672e+01
-4.414762020111083984e+00 1.884247064590454102e+00 9.759449005126953125e+00
-4.042289733886718750e+00 1.899011731147766113e+00 8.940564155578613281e+00
-3.706731796264648438e+00 1.900629401206970215e+00 8.202910423278808594e+00
-3.769785881042480469e+00 1.915092706680297852e+00 7.458860874176025391e+00
-3.507255792617797852e+00 1.918924927711486816e+00 6.943272113800048828e+00
-1.347291469573974609e+01 -6.555873155593872070e-01 2.403569412231445312e+01
-1.325865173339843750e+01 -5.425450801849365234e-01 2.628427124023437500e+01
-1.327119731903076172e+01 -2.051249891519546509e-02 2.632161331176757812e+01
-1.268811130523681641e+01 1.465970873832702637e-01 3.184722709655761719e+01
-1.338853645324707031e+01 3.175173699855804443e-01 2.390639686584472656e+01
-1.300932788848876953e+01 5.250784754753112793e-01 2.890498924255371094e+01
-1.263914012908935547e+01 7.520319223403930664e-01 3.174190902709960938e+01
-1.334302043914794922e+01 8.006426692008972168e-01 2.383573532104492188e+01
-1.288725948333740234e+01 1.077207922935485840e+00 2.864836311340332031e+01
-6.264456748962402344e+00 7.480072975158691406e-01 1.799616432189941406e+01
-1.305926990509033203e+01 1.352553486824035645e+00 2.593404388427734375e+01
-6.564568996429443359e+00 8.327742815017700195e-01 1.460047245025634766e+01
-6.236031532287597656e+00 1.081342101097106934e+00 1.792547607421875000e+01
-6.640788555145263672e+00 9.497686624526977539e-01 1.319458484649658203e+01
-6.562911033630371094e+00 1.116756081581115723e+00 1.460422992706298828e+01
-6.236871719360351562e+00 1.417572617530822754e+00 1.793783187866210938e+01
-6.644914150238037109e+00 1.213535428047180176e+00 1.320906162261962891e+01
-6.377875804901123047e+00 1.502412319183349609e+00 1.604999542236328125e+01
-6.126276016235351562e+00 1.723510861396789551e+00 1.763053321838378906e+01
-6.627107143402099609e+00 1.471942067146301270e+00 1.318048095703125000e+01
-6.226083278656005859e+00 1.765936613082885742e+00 1.567670059204101562e+01
-5.543552398681640625e+00 1.838988661766052246e+00 1.396589279174804688e+01
-4.858510494232177734e+00 1.845479130744934082e+00 1.224685573577880859e+01
-4.835551738739013672e+00 1.870568275451660156e+00 1.078885078430175781e+01
-4.377383708953857422e+00 1.883131980895996094e+00 9.772037506103515625e+00
-4.007921218872070312e+00 1.897864937782287598e+00 8.951803207397460938e+00
-3.679071426391601562e+00 1.901513814926147461e+00 8.221867561340332031e+00
-3.745946407318115234e+00 1.916550159454345703e+00 7.479668617248535156e+00
-3.486161470413208008e+00 1.921013355255126953e+00 6.964830875396728516e+00
-1.344688320159912109e+01 -6.597186923027038574e-01 2.419673919677734375e+01
-1.324346828460693359e+01 -2.178657799959182739e-02 2.650783729553222656e+01
-1.277812957763671875e+01 1.476360410451889038e-01 3.241822433471679688e+01
-1.352800083160400391e+01 3.218461275100708008e-01 2.436445045471191406e+01
-1.288621902465820312e+01 5.231347680091857910e-01 2.891413688659667969e+01
-1.261287975311279297e+01 7.560896873474121094e-01 3.201686859130859375e+01
-1.328760051727294922e+01 8.015012741088867188e-01 2.394219017028808594e+01
-1.286190128326416016e+01 1.082678675651550293e+00 2.887437820434570312e+01
-6.223824501037597656e+00 7.503149509429931641e-01 1.809273147583007812e+01
-1.304532623291015625e+01 1.359871387481689453e+00 2.614445686340332031e+01
-6.553270339965820312e+00 8.375419378280639648e-01 1.471934509277343750e+01
-6.223542213439941406e+00 1.089918851852416992e+00 1.810309028625488281e+01
-6.660098075866699219e+00 9.589339494705200195e-01 1.335461139678955078e+01
-6.555595397949218750e+00 1.124052524566650391e+00 1.473212623596191406e+01
-6.215180873870849609e+00 1.426944494247436523e+00 1.808888435363769531e+01
-6.657836437225341797e+00 1.224235653877258301e+00 1.335646438598632812e+01
-6.349651813507080078e+00 1.509008526802062988e+00 1.615119743347167969e+01
-6.094633579254150391e+00 1.732152342796325684e+00 1.774899482727050781e+01
-8.709584236145019531e+00 1.947920799255371094e+00 1.748162269592285156e+01
-6.200621604919433594e+00 1.774431586265563965e+00 1.578093719482421875e+01
-5.486554145812988281e+00 1.836453557014465332e+00 1.397140026092529297e+01
-4.804939746856689453e+00 1.841631889343261719e+00 1.224252128601074219e+01
-4.796008110046386719e+00 1.870102167129516602e+00 1.080656814575195312e+01
-4.339972496032714844e+00 1.882017016410827637e+00 9.784482002258300781e+00
-3.978299379348754883e+00 1.898997783660888672e+00 8.973680496215820312e+00
-3.645773649215698242e+00 1.899506568908691406e+00 8.228208541870117188e+00
-3.713339328765869141e+00 1.913541316986083984e+00 7.482938289642333984e+00
-3.456328868865966797e+00 1.918312311172485352e+00 6.968931674957275391e+00
-1.344515895843505859e+01 -6.643247604370117188e-01 2.437364768981933594e+01
-1.324201107025146484e+01 -5.514690279960632324e-01 2.670170593261718750e+01
-1.263770771026611328e+01 -4.721988439559936523e-01 3.234131240844726562e+01
-1.343348121643066406e+01 -1.710207760334014893e-01 2.436341667175292969e+01
-1.322230720520019531e+01 -2.289463579654693604e-02 2.667474365234375000e+01
-1.265367603302001953e+01 1.461989134550094604e-01 3.240045928955078125e+01
-1.337417793273925781e+01 3.190657496452331543e-01 2.426671981811523438e+01
-1.285999488830566406e+01 5.247033834457397461e-01 2.910081672668457031e+01
-1.259949302673339844e+01 7.601916790008544922e-01 3.227987670898437500e+01
-1.330204296112060547e+01 8.060151934623718262e-01 2.414668464660644531e+01
-1.284705924987792969e+01 1.088039636611938477e+00 2.908654403686523438e+01
-6.231380939483642578e+00 7.575011253356933594e-01 1.830139732360839844e+01
-1.303937911987304688e+01 1.366875648498535156e+00 2.633933067321777344e+01
-6.561860084533691406e+00 8.440527915954589844e-01 1.486413288116455078e+01
-6.236125946044921875e+00 1.101545333862304688e+00 1.832674026489257812e+01
-1.302647590637207031e+01 1.886480808258056641e+00 2.632702827453613281e+01
-6.554401397705078125e+00 1.131292343139648438e+00 1.485490417480468750e+01
-6.223203659057617188e+00 1.441322088241577148e+00 1.829907608032226562e+01
-1.081406688690185547e+01 2.000270843505859375e+00 2.186617279052734375e+01
-6.348079681396484375e+00 1.520198941230773926e+00 1.629736137390136719e+01
-6.061941623687744141e+00 1.738135695457458496e+00 1.783598709106445312e+01
-8.607030868530273438e+00 1.936547040939331055e+00 1.741261672973632812e+01
-6.196502685546875000e+00 1.786969542503356934e+00 1.591717243194580078e+01
-5.440502643585205078e+00 1.835218429565429688e+00 1.398307323455810547e+01
-4.767200469970703125e+00 1.841465115547180176e+00 1.225945854187011719e+01
-4.760470390319824219e+00 1.869077801704406738e+00 1.081802177429199219e+01
-4.303688526153564453e+00 1.879231572151184082e+00 9.785503387451171875e+00
-3.946164846420288086e+00 1.896766901016235352e+00 8.977204322814941406e+00
-3.619933128356933594e+00 1.899202466011047363e+00 8.239679336547851562e+00
-3.692423582077026367e+00 1.914598703384399414e+00 7.499872684478759766e+00
-3.433588266372680664e+00 1.917570829391479492e+00 6.978072166442871094e+00
-1.341616725921630859e+01 -6.684293746948242188e-01 2.453325271606445312e+01
-1.321989154815673828e+01 -5.558317899703979492e-01 2.690438270568847656e+01
-1.268059444427490234e+01 -4.796759188175201416e-01 3.280522537231445312e+01
-1.334313869476318359e+01 -1.721013188362121582e-01 2.441072463989257812e+01
-1.518402385711669922e+01 -2.784423530101776123e-02 3.091656112670898438e+01
-1.333405780792236328e+01 3.191477656364440918e-01 2.440508842468261719e+01
-1.282540702819824219e+01 5.264099836349487305e-01 2.931265640258789062e+01
-1.256321811676025391e+01 7.638186812400817871e-01 3.253850555419921875e+01
-1.328820800781250000e+01 8.094851970672607422e-01 2.433215713500976562e+01
-1.282207870483398438e+01 1.093754410743713379e+00 2.932027244567871094e+01
-6.209517955780029297e+00 7.622959017753601074e-01 1.845862388610839844e+01
-1.300260639190673828e+01 1.372030735015869141e+00 2.650896072387695312e+01
-1.280272674560546875e+01 1.659350037574768066e+00 2.929124259948730469e+01
-6.207112312316894531e+00 1.107597470283508301e+00 1.846307373046875000e+01
-6.583133220672607422e+00 9.598919749259948730e-01 1.342837142944335938e+01
-6.530283927917480469e+00 1.135931730270385742e+00 1.494834327697753906e+01
-6.198045253753662109e+00 1.450374007225036621e+00 1.844659233093261719e+01
-6.575580596923828125e+00 1.224777460098266602e+00 1.341945075988769531e+01
-6.335612773895263672e+00 1.530934929847717285e+00 1.644328308105468750e+01
-6.198156833648681641e+00 1.795805215835571289e+00 1.845851707458496094e+01
-6.581579685211181641e+00 1.491305708885192871e+00 1.343875885009765625e+01
-6.286120891571044922e+00 1.829357624053955078e+00 1.632408714294433594e+01
-5.377125740051269531e+00 1.830500960350036621e+00 1.397148799896240234e+01
-4.724400043487548828e+00 1.841778635978698730e+00 1.228246021270751953e+01
-4.723187446594238281e+00 1.869548797607421875e+00 1.084089851379394531e+01
-4.269398689270019531e+00 1.879502415657043457e+00 9.804889678955078125e+00
-3.916401624679565430e+00 1.897899270057678223e+00 8.998877525329589844e+00
-3.592082262039184570e+00 1.900086164474487305e+00 8.258342742919921875e+00
-3.663232803344726562e+00 1.913376569747924805e+00 7.509919643402099609e+00
-3.417381763458251953e+00 1.922530412673950195e+00 7.009878635406494141e+00
-1.341723537445068359e+01 -6.732959747314453125e-01 2.471935272216796875e+01
-1.260250091552734375e+01 -4.818200469017028809e-01 3.291024780273437500e+01
-1.397977638244628906e+01 -1.823433041572570801e-01 2.576742935180664062e+01
-1.317622566223144531e+01 -2.533388882875442505e-02 2.704280090332031250e+01
-1.257726001739501953e+01 1.453233659267425537e-01 3.286314773559570312e+01
-1.393707084655761719e+01 3.345266580581665039e-01 2.570032691955566406e+01
-1.282478904724121094e+01 5.291045904159545898e-01 2.956378936767578125e+01
-1.255452919006347656e+01 7.683686017990112305e-01 3.282249069213867188e+01
-1.328697776794433594e+01 8.131573796272277832e-01 2.451265335083007812e+01
-1.279989433288574219e+01 1.098678827285766602e+00 2.952182197570800781e+01
-6.183074474334716797e+00 7.655484080314636230e-01 1.857287216186523438e+01
-1.299096679687500000e+01 1.378640770912170410e+00 2.669702911376953125e+01
-6.500271320343017578e+00 8.480436205863952637e-01 1.500013923645019531e+01
-6.183766841888427734e+00 1.113183259963989258e+00 1.858672332763671875e+01
-6.600289344787597656e+00 9.680935144424438477e-01 1.357106685638427734e+01
-6.499960422515869141e+00 1.138296604156494141e+00 1.500726509094238281e+01
-6.177844047546386719e+00 1.458634138107299805e+00 1.857957458496093750e+01
-6.591797828674316406e+00 1.235213994979858398e+00 1.356019210815429688e+01
-6.316631793975830078e+00 1.538299918174743652e+00 1.654878044128417969e+01
-6.122580528259277344e+00 1.790009021759033203e+00 1.842503356933593750e+01
-6.590663909912109375e+00 1.502498269081115723e+00 1.356502819061279297e+01
-6.151883125305175781e+00 1.804436326026916504e+00 1.612636375427246094e+01
-5.312724590301513672e+00 1.822958230972290039e+00 1.393457412719726562e+01
-4.682996273040771484e+00 1.840225934982299805e+00 1.228989410400390625e+01
-4.682867050170898438e+00 1.866651058197021484e+00 1.084123229980468750e+01
-4.235479831695556641e+00 1.877756476402282715e+00 9.811078071594238281e+00
-3.881137371063232422e+00 1.894150614738464355e+00 8.994967460632324219e+00
-3.561498403549194336e+00 1.897305011749267578e+00 8.258864402770996094e+00
-3.633704900741577148e+00 1.909969806671142578e+00 7.509165287017822266e+00
-3.386070251464843750e+00 1.917001843452453613e+00 7.001409053802490234e+00
-1.339853858947753906e+01 -6.780449748039245605e-01 2.490215301513671875e+01
-1.316689205169677734e+01 -5.636088252067565918e-01 2.726380157470703125e+01
-1.729332542419433594e+01 -6.694763898849487305e-01 4.566028213500976562e+01
-1.384356212615966797e+01 -1.829447448253631592e-01 2.574098396301269531e+01
-1.318396472930908203e+01 -2.673608064651489258e-02 2.731245040893554688e+01
-1.720819282531738281e+01 1.988411545753479004e-01 4.546174621582031250e+01
-1.353220748901367188e+01 3.258976638317108154e-01 2.517347526550292969e+01
-1.279763793945312500e+01 5.312076807022094727e-01 2.979987335205078125e+01
-1.723378372192382812e+01 1.063043355941772461e+00 4.555556869506835938e+01
-1.323680591583251953e+01 8.145068883895874023e-01 2.463517761230468750e+01
-1.279096698760986328e+01 1.105999708175659180e+00 2.980001068115234375e+01
-6.191764354705810547e+00 7.743839621543884277e-01 1.882894706726074219e+01
-1.297634506225585938e+01 1.386369228363037109e+00 2.691727828979492188e+01
-6.483064174652099609e+00 8.523685336112976074e-01 1.511199855804443359e+01
-6.189185142517089844e+00 1.125795364379882812e+00 1.883314514160156250e+01
