# .PCD v0.7 - Point Cloud Data file format
VERSION 0.7
FIELDS x y z
SIZE 4 4 4
TYPE F F F
COUNT 1 1 1
WIDTH 628
HEIGHT 1
VIEWPOINT 0 0 0 1 0 0 0
POINTS 628
DATA ascii
-6.443007469177246094e+00 1.754675865173339844e+00 1.543983268737792969e+01
-5.559974193572998047e+00 1.770483970642089844e+00 1.333089542388916016e+01
-4.910722732543945312e+00 1.790144443511962891e+00 1.178052330017089844e+01
-4.888530731201171875e+00 1.823325872421264648e+00 1.042081832885742188e+01
-4.429188251495361328e+00 1.836918950080871582e+00 9.446738243103027344e+00
-4.065185070037841797e+00 1.855570912361145020e+00 8.674657821655273438e+00
-3.733276605606079102e+00 1.859773874282836914e+00 7.970690250396728516e+00
-3.783269882202148438e+00 1.872954964637756348e+00 7.239012241363525391e+00
-3.522219181060791016e+00 1.877884030342102051e+00 6.743175983428955078e+00
-1.404827976226806641e+01 -4.900559484958648682e-01 3.384280014038085938e+01
-3.347444152832031250e+01 -3.956752419471740723e-01 5.781303405761718750e+01
-2.449146270751953125e+01 -2.879141271114349365e-02 4.691381072998046875e+01
-1.467214107513427734e+01 1.695475280284881592e-01 3.536482238769531250e+01
-2.437282752990722656e+01 5.712035298347473145e-01 4.211216735839843750e+01
-1.753442382812500000e+01 6.925352811813354492e-01 3.753231811523437500e+01
-1.396652221679687500e+01 8.081442117691040039e-01 3.368218612670898438e+01
-2.393350410461425781e+01 1.408121705055236816e+00 4.137117385864257812e+01
-1.750917816162109375e+01 1.425388813018798828e+00 3.749692153930664062e+01
-6.328133583068847656e+00 7.290041446685791016e-01 1.738365554809570312e+01
-1.711635017395019531e+01 1.730140566825866699e+00 3.282725906372070312e+01
-6.603846073150634766e+00 8.146799802780151367e-01 1.414955806732177734e+01
-6.317384243011474609e+00 1.055589199066162109e+00 1.736440086364746094e+01
-6.647640228271484375e+00 9.270566105842590332e-01 1.275589466094970703e+01
-6.592349529266357422e+00 1.090042948722839355e+00 1.413195514678955078e+01
-6.321383953094482422e+00 1.383605957031250000e+00 1.738471221923828125e+01
-6.620941162109375000e+00 1.178412079811096191e+00 1.271058082580566406e+01
-6.447076797485351562e+00 1.469269394874572754e+00 1.557877445220947266e+01
-6.346891880035400391e+00 1.718788981437683105e+00 1.746519088745117188e+01
-6.616920471191406250e+00 1.431823968887329102e+00 1.270929813385009766e+01
-6.368648529052734375e+00 1.747019886970520020e+00 1.539755725860595703e+01
-5.512784481048583984e+00 1.768293142318725586e+00 1.333550834655761719e+01
-4.872959613800048828e+00 1.789435505867004395e+00 1.179411602020263672e+01
-4.850795745849609375e+00 1.821059823036193848e+00 1.042543411254882812e+01
-4.399515628814697266e+00 1.836566448211669922e+00 9.460660934448242188e+00
-4.041250705718994141e+00 1.856768250465393066e+00 8.694564819335937500e+00
-3.709068775177001953e+00 1.859889864921569824e+00 7.984210491180419922e+00
-3.762331247329711914e+00 1.873573303222656250e+00 7.254380226135253906e+00
-3.503725051879882812e+00 1.879065275192260742e+00 6.759437084197998047e+00
-1.388918876647949219e+01 -4.902662634849548340e-01 3.380894470214843750e+01
-3.318863296508789062e+01 -3.974118828773498535e-01 5.780696868896484375e+01
-2.448387336730957031e+01 -3.108271956443786621e-02 4.732121658325195312e+01
-1.453407859802246094e+01 1.679418683052062988e-01 3.539801025390625000e+01
-2.438157844543457031e+01 5.731334090232849121e-01 4.248569107055664062e+01
-1.381870460510253906e+01 8.052915334701538086e-01 3.367398071289062500e+01
-2.388917160034179688e+01 1.412600278854370117e+00 4.164595031738281250e+01
-1.955150794982910156e+01 1.602414727210998535e+00 4.227414703369140625e+01
-6.300934791564941406e+00 7.325248122215270996e-01 1.750829696655273438e+01
-6.658605575561523438e+00 6.772567033767700195e-01 1.288544559478759766e+01
-6.603917121887207031e+00 8.205203413963317871e-01 1.428609943389892578e+01
-6.311836242675781250e+00 1.064665555953979492e+00 1.754906272888183594e+01
-6.662224769592285156e+00 9.351037144660949707e-01 1.289901638031005859e+01
-6.598269462585449219e+00 1.099045872688293457e+00 1.428103065490722656e+01
-6.317695617675781250e+00 1.396148085594177246e+00 1.757485389709472656e+01
-6.661196708679199219e+00 1.193410634994506836e+00 1.290306568145751953e+01
-6.431493282318115234e+00 1.478150367736816406e+00 1.570376110076904297e+01
-6.229001045227050781e+00 1.703328013420104980e+00 1.733846092224121094e+01
-6.647885799407958984e+00 1.448156952857971191e+00 1.288384151458740234e+01
-6.259455680847167969e+00 1.731770277023315430e+00 1.529199695587158203e+01
-5.466156482696533203e+00 1.768453836441040039e+00 1.336119842529296875e+01
-4.828230857849121094e+00 1.788377285003662109e+00 1.180829429626464844e+01
-4.807622432708740234e+00 1.818730115890502930e+00 1.043244266510009766e+01
-4.359074115753173828e+00 1.833728671073913574e+00 9.464264869689941406e+00
-4.007745265960693359e+00 1.855629920959472656e+00 8.705817222595214844e+00
-3.686354637145996094e+00 1.862849354743957520e+00 8.012039184570312500e+00
-3.733966350555419922e+00 1.872357964515686035e+00 7.264720439910888672e+00
-3.476296186447143555e+00 1.877328038215637207e+00 6.767118453979492188e+00
-1.374785614013671875e+01 -4.910880327224731445e-01 3.381699752807617188e+01
-3.288848495483398438e+01 -3.989578485488891602e-01 5.777350997924804688e+01
-2.440061950683593750e+01 -3.330302238464355469e-02 4.758681488037109375e+01
-1.495081806182861328e+01 1.727491170167922974e-01 3.679623031616210938e+01
-2.434143447875976562e+01 5.739407539367675781e-01 4.277815628051757812e+01
-2.222091484069824219e+01 8.874389529228210449e-01 4.848737335205078125e+01
-1.366587066650390625e+01 8.021348118782043457e-01 3.365218353271484375e+01
-2.387180900573730469e+01 1.418764829635620117e+00 4.197133636474609375e+01
-1.770004844665527344e+01 1.460591554641723633e+00 3.864202117919921875e+01
-6.309077739715576172e+00 7.402812838554382324e-01 1.773464775085449219e+01
-6.648683547973632812e+00 6.805073022842407227e-01 1.298269271850585938e+01
-6.585615634918212891e+00 8.241658210754394531e-01 1.438469219207763672e+01
-6.311708450317382812e+00 1.074867725372314453e+00 1.775272750854492188e+01
-6.649477958679199219e+00 9.394143819808959961e-01 1.299089336395263672e+01
-6.580770015716552734e+00 1.104276537895202637e+00 1.438135433197021484e+01
-6.308691501617431641e+00 1.407782435417175293e+00 1.775392341613769531e+01
-6.642933845520019531e+00 1.198078870773315430e+00 1.298422050476074219e+01
-6.422564029693603516e+00 1.488757491111755371e+00 1.584730720520019531e+01
-6.138115882873535156e+00 1.695057749748229980e+00 1.728429031372070312e+01
-6.635981559753417969e+00 1.455335855484008789e+00 1.297727394104003906e+01
-6.199663162231445312e+00 1.730077028274536133e+00 1.530567932128906250e+01
-5.411964416503906250e+00 1.766183137893676758e+00 1.336832618713378906e+01
-4.781235694885253906e+00 1.786486625671386719e+00 1.181679439544677734e+01
-4.776766300201416016e+00 1.821091294288635254e+00 1.046623229980468750e+01
-4.330110073089599609e+00 1.835743784904479980e+00 9.492788314819335938e+00
-3.976655721664428711e+00 1.855632185935974121e+00 8.722301483154296875e+00
-3.658618450164794922e+00 1.863328218460083008e+00 8.029124259948730469e+00
-3.710000276565551758e+00 1.873376846313476562e+00 7.283635616302490234e+00
-3.453263521194458008e+00 1.877986669540405273e+00 6.783342361450195312e+00
-1.797036743164062500e+01 -8.673236966133117676e-01 3.178547096252441406e+01
-1.359895133972167969e+01 -4.907837510108947754e-01 3.375427246093750000e+01
-1.796612739562988281e+01 -2.203787714242935181e-01 3.179204368591308594e+01
-1.481946754455566406e+01 1.712262928485870361e-01 3.680406188964843750e+01
-1.797102928161621094e+01 4.248600602149963379e-01 3.181476593017578125e+01
-1.543272590637207031e+01 6.193346381187438965e-01 3.395637893676757812e+01
-1.354292964935302734e+01 7.998938560485839844e-01 3.365230941772460938e+01
-1.795847129821777344e+01 1.072023510932922363e+00 3.180663108825683594e+01
-1.540854549407958984e+01 1.279025316238403320e+00 3.392034912109375000e+01
-6.295835018157958984e+00 7.446727752685546875e-01 1.787503814697265625e+01
-6.636838436126708984e+00 6.829955577850341797e-01 1.306052970886230469e+01
-6.602333545684814453e+00 8.314297795295715332e-01 1.454173278808593750e+01
-6.287745952606201172e+00 1.079697370529174805e+00 1.786290931701660156e+01
-6.645703792572021484e+00 9.441865682601928711e-01 1.308470630645751953e+01
-6.588341712951660156e+00 1.112653136253356934e+00 1.451826763153076172e+01
-6.287987232208251953e+00 1.415041923522949219e+00 1.787341117858886719e+01
-6.640025615692138672e+00 1.204460978507995605e+00 1.307971096038818359e+01
-6.406185626983642578e+00 1.495983242988586426e+00 1.595065212249755859e+01
-6.070600032806396484e+00 1.690760135650634766e+00 1.726596260070800781e+01
-6.642026901245117188e+00 1.465173244476318359e+00 1.309038734436035156e+01
-6.156020164489746094e+00 1.730769276618957520e+00 1.533620834350585938e+01
-5.376618385314941406e+00 1.767883419990539551e+00 1.340189743041992188e+01
-4.743377685546875000e+00 1.785778522491455078e+00 1.182997226715087891e+01
-4.735743522644042969e+00 1.817576289176940918e+00 1.046324634552001953e+01
-4.297045707702636719e+00 1.834005236625671387e+00 9.499222755432128906e+00
-3.950070142745971680e+00 1.855688333511352539e+00 8.736596107482910156e+00
-3.622927665710449219e+00 1.857658743858337402e+00 8.017453193664550781e+00
-3.681850671768188477e+00 1.870420575141906738e+00 7.284873008728027344e+00
-3.427584886550903320e+00 1.875334858894348145e+00 6.785549163818359375e+00
-1.779312705993652344e+01 -8.658072352409362793e-01 3.174295234680175781e+01
-1.342701148986816406e+01 -4.904594421386718750e-01 3.368311691284179688e+01
-1.781820106506347656e+01 -2.214231789112091064e-01 3.180183601379394531e+01
-1.464599323272705078e+01 1.692182570695877075e-01 3.676151657104492188e+01
-1.783281707763671875e+01 4.229161739349365234e-01 3.184204483032226562e+01
-1.530079555511474609e+01 6.175659298896789551e-01 3.399632263183593750e+01
-1.339658641815185547e+01 7.971001863479614258e-01 3.364415740966796875e+01
-1.780957412719726562e+01 1.068656444549560547e+00 3.181470680236816406e+01
-1.520952510833740234e+01 1.271319150924682617e+00 3.381075668334960938e+01
-6.266427993774414062e+00 7.482425570487976074e-01 1.800182723999023438e+01
-6.609604358673095703e+00 6.845591664314270020e-01 1.312583160400390625e+01
-6.566207408905029297e+00 8.329821228981018066e-01 1.460411548614501953e+01
-6.262930870056152344e+00 1.086006522178649902e+00 1.800279617309570312e+01
-6.570271015167236328e+00 1.118008494377136230e+00 1.462060928344726562e+01
-6.263726234436035156e+00 1.423676252365112305e+00 1.801506996154785156e+01
-1.015638160705566406e+01 1.854821205139160156e+00 2.018931770324707031e+01
-6.397741794586181641e+00 1.507092237472534180e+00 1.609998893737792969e+01
-6.024302959442138672e+00 1.694822311401367188e+00 1.733707046508789062e+01
-6.104938507080078125e+00 1.731575846672058105e+00 1.537167072296142578e+01
-5.320901870727539062e+00 1.765127778053283691e+00 1.340497016906738281e+01
-4.701478481292724609e+00 1.785831212997436523e+00 1.185102367401123047e+01
-4.690121173858642578e+00 1.814310669898986816e+00 1.046437358856201172e+01
-4.263842105865478516e+00 1.834286928176879883e+00 9.518568038940429688e+00
-3.914844036102294922e+00 1.853790283203125000e+00 8.743912696838378906e+00
-3.599143743515014648e+00 1.860203504562377930e+00 8.043248176574707031e+00
-3.656902790069580078e+00 1.870992302894592285e+00 7.301872253417968750e+00
-3.405330657958984375e+00 1.876472234725952148e+00 6.803342342376708984e+00
-1.767568397521972656e+01 -8.671881556510925293e-01 3.180617141723632812e+01
-1.329906272888183594e+01 -4.917252659797668457e-01 3.372092437744140625e+01
-1.775979614257812500e+01 -2.235879004001617432e-01 3.197181320190429688e+01
-1.448476505279541016e+01 1.673541963100433350e-01 3.674797439575195312e+01
-1.808975791931152344e+01 4.303753972053527832e-01 3.258034896850585938e+01
-1.524692916870117188e+01 6.189712285995483398e-01 3.421110534667968750e+01
-1.326367664337158203e+01 7.951023578643798828e-01 3.366887283325195312e+01
-2.396172332763671875e+01 1.445358872413635254e+00 4.317530441284179688e+01
-1.504811382293701172e+01 1.266708016395568848e+00 3.378232574462890625e+01
-6.238126277923583984e+00 7.520391345024108887e-01 1.813430595397949219e+01
-6.599820613861083984e+00 6.879786849021911621e-01 1.322686100006103516e+01
-6.532961845397949219e+00 8.349462747573852539e-01 1.467372894287109375e+01
-6.243016719818115234e+00 1.093329310417175293e+00 1.815973854064941406e+01
-6.595073699951171875e+00 9.495716691017150879e-01 1.322422695159912109e+01
-6.530450344085693359e+00 1.119740962982177734e+00 1.467562007904052734e+01
-6.230087280273437500e+00 1.430366754531860352e+00 1.813226699829101562e+01
-6.658725738525390625e+00 1.224399089813232422e+00 1.335824871063232422e+01
-6.389018058776855469e+00 1.518364071846008301e+00 1.625133132934570312e+01
-5.993088245391845703e+00 1.703292369842529297e+00 1.745327186584472656e+01
-6.594754695892333984e+00 1.474933862686157227e+00 1.323679733276367188e+01
-6.062410354614257812e+00 1.734879612922668457e+00 1.542918014526367188e+01
-5.273941993713378906e+00 1.765288352966308594e+00 1.342998790740966797e+01
-4.656594276428222656e+00 1.784774303436279297e+00 1.186455249786376953e+01
-4.658979415893554688e+00 1.816670656204223633e+00 1.049780941009521484e+01
-4.230554580688476562e+00 1.834568381309509277e+00 9.537797927856445312e+00
-3.886780261993408203e+00 1.855312108993530273e+00 8.767244338989257812e+00
-3.564914703369140625e+00 1.857378005981445312e+00 8.045716285705566406e+00
-3.628413438796997070e+00 1.869777560234069824e+00 7.311800003051757812e+00
-3.381266117095947266e+00 1.876651406288146973e+00 6.817584514617919922e+00
-1.773501777648925781e+01 -8.762864470481872559e-01 3.215038681030273438e+01
-1.317777442932128906e+01 -4.923780560493469238e-01 3.372340393066406250e+01
-2.367058563232421875e+01 -3.013486862182617188e-01 4.292976760864257812e+01
-1.317242431640625000e+01 1.521924585103988647e-01 3.372874450683593750e+01
-2.365071868896484375e+01 5.642316341400146484e-01 4.291294479370117188e+01
-1.492519187927246094e+01 6.089658737182617188e-01 3.377413940429687500e+01
-1.314912986755371094e+01 7.933541536331176758e-01 3.368804550170898438e+01
-2.363885879516601562e+01 1.432357430458068848e+00 4.291070556640625000e+01
-1.490639972686767578e+01 1.262448906898498535e+00 3.374902343750000000e+01
-6.242331504821777344e+00 7.588322162628173828e-01 1.833356094360351562e+01
-6.611428260803222656e+00 6.930544972419738770e-01 1.335497665405273438e+01
-6.540887832641601562e+00 8.413550853729248047e-01 1.481662559509277344e+01
-6.253493309020996094e+00 1.104612946510314941e+00 1.837777900695800781e+01
-6.600423336029052734e+00 9.558665752410888672e-01 1.333971977233886719e+01
-6.255953788757324219e+00 1.448907136917114258e+00 1.839537811279296875e+01
-6.599956512451171875e+00 1.220789670944213867e+00 1.334518909454345703e+01
-6.381346225738525391e+00 1.528165340423583984e+00 1.638276481628417969e+01
-5.933768272399902344e+00 1.701384902000427246e+00 1.745886802673339844e+01
-6.591962337493896484e+00 1.483164787292480469e+00 1.333599376678466797e+01
-6.001667022705078125e+00 1.730782151222229004e+00 1.541668987274169922e+01
-5.233911037445068359e+00 1.765529632568359375e+00 1.345209312438964844e+01
-4.625784873962402344e+00 1.786839365959167480e+00 1.189579200744628906e+01
-4.618046283721923828e+00 1.813158512115478516e+00 1.049436759948730469e+01
-4.197424411773681641e+00 1.832830667495727539e+00 9.543885231018066406e+00
-3.848181962966918945e+00 1.849670767784118652e+00 8.754302024841308594e+00
-3.539647579193115234e+00 1.857080578804016113e+00 8.056934356689453125e+00
-3.604590892791748047e+00 1.869055628776550293e+00 7.321471214294433594e+00
-3.359000921249389648e+00 1.875915646553039551e+00 6.826488494873046875e+00
-1.769955635070800781e+01 -8.818392157554626465e-01 3.236600112915039062e+01
-1.739988327026367188e+01 -7.315800786018371582e-01 3.541127014160156250e+01
-1.308364391326904297e+01 -4.949223399162292480e-01 3.384793090820312500e+01
-3.147963905334472656e+01 -4.060279726982116699e-01 5.759070587158203125e+01
-1.739699935913085938e+01 -3.190235793590545654e-02 3.542245864868164062e+01
-1.350422096252441406e+01 1.560291945934295654e-01 3.495586395263671875e+01
-2.439942550659179688e+01 5.839949250221252441e-01 4.465783691406250000e+01
-1.473799514770507812e+01 6.049108505249023438e-01 3.368390655517578125e+01
-1.304791450500488281e+01 7.932872176170349121e-01 3.379386520385742188e+01
-2.375262451171875000e+01 1.446951746940612793e+00 4.349364471435546875e+01
-1.474498939514160156e+01 1.257783293724060059e+00 3.371739959716796875e+01
-6.227360248565673828e+00 7.644861340522766113e-01 1.851166343688964844e+01
-6.618756771087646484e+00 6.984090805053710938e-01 1.349393939971923828e+01
-6.532150745391845703e+00 8.466261625289916992e-01 1.494484710693359375e+01
-6.229383468627929688e+00 1.111571550369262695e+00 1.852931594848632812e+01
-6.615640163421630859e+00 9.646317958831787109e-01 1.349467945098876953e+01
-6.526289939880371094e+00 1.135237097740173340e+00 1.493920040130615234e+01
-6.220278739929199219e+00 1.455576777458190918e+00 1.851276588439941406e+01
-6.607155799865722656e+00 1.230658650398254395e+00 1.348389053344726562e+01
-6.352089881896972656e+00 1.534916400909423828e+00 1.648604583740234375e+01
-5.869769573211669922e+00 1.700660705566406250e+00 1.748055648803710938e+01
-6.606088638305664062e+00 1.496859073638916016e+00 1.348880386352539062e+01
-5.945152282714843750e+00 1.730130553245544434e+00 1.543864440917968750e+01
-5.180323600769042969e+00 1.763504743576049805e+00 1.346013259887695312e+01
-4.577207088470458984e+00 1.784396409988403320e+00 1.189978981018066406e+01
-4.589840412139892578e+00 1.816766619682312012e+00 1.053483200073242188e+01
-4.164806365966796875e+00 1.833458304405212402e+00 9.564688682556152344e+00
-3.825504779815673828e+00 1.853850364685058594e+00 8.790019989013671875e+00
-3.506222248077392578e+00 1.854669213294982910e+00 8.060946464538574219e+00
-3.572634935379028320e+00 1.866055488586425781e+00 7.324186801910400391e+00
-3.334840297698974609e+00 1.876094579696655273e+00 6.840566158294677734e+00
-1.753168296813964844e+01 -7.442442774772644043e-01 3.601235580444335938e+01
-1.295092773437500000e+01 -4.960231184959411621e-01 3.387321853637695312e+01
-3.127120971679687500e+01 -4.086443483829498291e-01 5.771095275878906250e+01
-1.296839427947998047e+01 1.498435884714126587e-01 3.393836212158203125e+01
-2.438894462585449219e+01 5.856775641441345215e-01 4.503010559082031250e+01
-1.458901977539062500e+01 6.024109721183776855e-01 3.367899703979492188e+01
-1.297106742858886719e+01 7.947454452514648438e-01 3.396477127075195312e+01
-2.378533935546875000e+01 1.456779360771179199e+00 4.393558502197265625e+01
-1.459115886688232422e+01 1.253739356994628906e+00 3.370154953002929688e+01
-6.197931289672851562e+00 7.684863805770874023e-01 1.865007400512695312e+01
-6.626901149749755859e+00 7.039389014244079590e-01 1.363672733306884766e+01
-6.509869098663330078e+00 8.502306342124938965e-01 1.504387187957763672e+01
-6.202987670898437500e+00 1.118292689323425293e+00 1.867713356018066406e+01
-6.618473529815673828e+00 9.717212915420532227e-01 1.362658977508544922e+01
-6.526161193847656250e+00 1.144175410270690918e+00 1.508941650390625000e+01
-6.220268726348876953e+00 1.470855832099914551e+00 1.873992729187011719e+01
-6.616909503936767578e+00 1.241171002388000488e+00 1.362999629974365234e+01
-6.368282794952392578e+00 1.552907466888427734e+00 1.671035575866699219e+01
-5.794404506683349609e+00 1.696632146835327148e+00 1.746798706054687500e+01
-6.621790409088134766e+00 1.511136889457702637e+00 1.364726638793945312e+01
-5.878645420074462891e+00 1.726567745208740234e+00 1.543436717987060547e+01
-5.123922824859619141e+00 1.760510206222534180e+00 1.346053886413574219e+01
-4.536409378051757812e+00 1.785002827644348145e+00 1.192395401000976562e+01
-4.541839599609375000e+00 1.812566757202148438e+00 1.052988147735595703e+01
-4.121175765991210938e+00 1.829239606857299805e+00 9.560056686401367188e+00
-3.787854194641113281e+00 1.850814819335937500e+00 8.791423797607421875e+00
-3.484424829483032227e+00 1.858450651168823242e+00 8.091783523559570312e+00
-3.543252944946289062e+00 1.864395260810852051e+00 7.332032203674316406e+00
-3.306398868560791016e+00 1.873880267143249512e+00 6.845815658569335938e+00
-1.745513916015625000e+01 -8.833330273628234863e-01 3.244164276123046875e+01
-1.761412048339843750e+01 -7.539725303649902344e-01 3.647237777709960938e+01
-1.284727954864501953e+01 -4.973566532135009766e-01 3.392120361328125000e+01
-2.443226623535156250e+01 -3.228760659694671631e-01 4.542982482910156250e+01
-1.296650218963623047e+01 1.498282998800277710e-01 3.425577163696289062e+01
-2.441687011718750000e+01 5.880342125892639160e-01 4.542181777954101562e+01
-1.445869445800781250e+01 6.001552343368530273e-01 3.366771697998046875e+01
-1.297256374359130859e+01 8.001955747604370117e-01 3.429151153564453125e+01
-2.313247489929199219e+01 1.423421859741210938e+00 4.305212783813476562e+01
-1.446079254150390625e+01 1.250385046005249023e+00 3.369032287597656250e+01
-6.173035621643066406e+00 7.720416188240051270e-01 1.877199363708496094e+01
-6.508262157440185547e+00 8.556814789772033691e-01 1.517073440551757812e+01
-6.181704521179199219e+00 1.124434471130371094e+00 1.881037902832031250e+01
-1.282814311981201172e+01 1.894690513610839844e+00 2.662400817871093750e+01
-6.495253562927246094e+00 1.146534204483032227e+00 1.514838600158691406e+01
-6.167611598968505859e+00 1.471676707267761230e+00 1.877836990356445312e+01
-9.767272949218750000e+00 1.843279123306274414e+00 2.028127288818359375e+01
-6.322815418243408203e+00 1.554033637046813965e+00 1.674896621704101562e+01
-5.741388797760009766e+00 1.696563720703125000e+00 1.749183464050292969e+01
-5.831559181213378906e+00 1.726426124572753906e+00 1.545653438568115234e+01
-5.081636428833007812e+00 1.760024189949035645e+00 1.347662258148193359e+01
-4.494762897491455078e+00 1.782909989356994629e+00 1.192708110809326172e+01
-4.508763313293457031e+00 1.812179088592529297e+00 1.054415321350097656e+01
-4.097341060638427734e+00 1.831656336784362793e+00 9.587503433227539062e+00
-3.764871358871459961e+00 1.852768898010253906e+00 8.814171791076660156e+00
-3.449024677276611328e+00 1.852787375450134277e+00 8.079349517822265625e+00
-3.528655529022216797e+00 1.868583202362060547e+00 7.360764503479003906e+00
-3.289937019348144531e+00 1.876495003700256348e+00 6.866734027862548828e+00
-1.786608505249023438e+01 -7.722429037094116211e-01 3.734297561645507812e+01
-3.103479003906250000e+01 -4.155401289463043213e-01 5.821716308593750000e+01
-1.777405738830566406e+01 -3.794404119253158569e-02 3.716882324218750000e+01
-1.296567630767822266e+01 1.498287022113800049e-01 3.463647079467773438e+01
-2.442328643798828125e+01 5.901882648468017578e-01 4.583577346801757812e+01
-1.431722164154052734e+01 5.979591608047485352e-01 3.367817687988281250e+01
-1.295400905609130859e+01 8.054172992706298828e-01 3.462538528442382812e+01
-2.299805068969726562e+01 1.422954082489013672e+00 4.318077850341796875e+01
-1.432004547119140625e+01 1.247441530227661133e+00 3.370266342163085938e+01
-6.180140018463134766e+00 7.808604240417480469e-01 1.902831077575683594e+01
-6.581306457519531250e+00 7.079229950904846191e-01 1.378071784973144531e+01
-6.501035690307617188e+00 8.614447116851806641e-01 1.530849838256835938e+01
-6.184866428375244141e+00 1.136916041374206543e+00 1.905516242980957031e+01
-6.559991836547851562e+00 9.757279157638549805e-01 1.374343681335449219e+01
-6.495836257934570312e+00 1.155871629714965820e+00 1.530436515808105469e+01
-6.191083908081054688e+00 1.493165254592895508e+00 1.908547401428222656e+01
-9.654282569885253906e+00 1.835050463676452637e+00 2.023604202270507812e+01
-6.959681034088134766e+00 1.726554989814758301e+00 1.864249229431152344e+01
-5.676655292510986328e+00 1.695658206939697266e+00 1.751092529296875000e+01
-6.587040424346923828e+00 1.523498415946960449e+00 1.381427764892578125e+01
-5.776289939880371094e+00 1.726191639900207520e+00 1.548159313201904297e+01
-5.033626556396484375e+00 1.759942412376403809e+00 1.349894046783447266e+01
-4.452431678771972656e+00 1.782962203025817871e+00 1.194724941253662109e+01
-4.469347476959228516e+00 1.811414957046508789e+00 1.055885314941406250e+01
-4.057600021362304688e+00 1.829169273376464844e+00 9.591636657714843750e+00
-3.725689411163330078e+00 1.848975419998168945e+00 8.811699867248535156e+00
-3.419420480728149414e+00 1.852441072463989258e+00 8.092002868652343750e+00
-3.500011682510375977e+00 1.867369055747985840e+00 7.370193004608154297e+00
-3.263113021850585938e+00 1.875237703323364258e+00 6.875305175781250000e+00
-1.772823715209960938e+01 -7.738370895385742188e-01 3.740636825561523438e+01
-3.081093215942382812e+01 -4.179952144622802734e-01 5.831104660034179688e+01
-1.770021629333496094e+01 -3.970805555582046509e-02 3.736565780639648438e+01
-1.301152610778808594e+01 1.503710746765136719e-01 3.515078735351562500e+01
-2.441765594482421875e+01 5.920863747596740723e-01 4.623269653320312500e+01
-1.416500759124755859e+01 5.953104496002197266e-01 3.366224288940429688e+01
-1.292416191101074219e+01 8.100500106811523438e-01 3.493520355224609375e+01
-2.391108894348144531e+01 1.487691521644592285e+00 4.529441452026367188e+01
-1.416467761993408203e+01 1.243209362030029297e+00 3.367942047119140625e+01
-6.181785106658935547e+00 7.891927957534790039e-01 1.927351188659667969e+01
-6.570922374725341797e+00 7.116701602935791016e-01 1.388965129852294922e+01
-6.489791870117187500e+00 8.667846918106079102e-01 1.543904685974121094e+01
-6.179002285003662109e+00 1.148020625114440918e+00 1.927739906311035156e+01
-6.563343048095703125e+00 9.831791520118713379e-01 1.388109779357910156e+01
-6.477588176727294922e+00 1.162009119987487793e+00 1.541824436187744141e+01
-6.882911682128906250e+00 1.678110003471374512e+00 2.148615455627441406e+01
-6.582899570465087891e+00 1.260337352752685547e+00 1.392934703826904297e+01
-6.876156330108642578e+00 1.721970319747924805e+00 1.862681388854980469e+01
-5.610038280487060547e+00 1.694202899932861328e+00 1.752408599853515625e+01
-6.568690776824951172e+00 1.530420660972595215e+00 1.390676212310791016e+01
-5.727112770080566406e+00 1.727826118469238281e+00 1.552324962615966797e+01
-4.986207485198974609e+00 1.760102629661560059e+00 1.352294921875000000e+01
-4.405903816223144531e+00 1.781352877616882324e+00 1.195611667633056641e+01
-4.426067829132080078e+00 1.809090733528137207e+00 1.056429481506347656e+01
-4.025492191314697266e+00 1.830142378807067871e+00 9.613777160644531250e+00
-3.699463844299316406e+00 1.851633787155151367e+00 8.839854240417480469e+00
-3.395056247711181641e+00 1.854982852935791016e+00 8.117184638977050781e+00
-3.473836421966552734e+00 1.867493510246276855e+00 7.384802341461181641e+00
-3.235444784164428711e+00 1.873502612113952637e+00 6.882013320922851562e+00
-1.761318397521972656e+01 -7.753479480743408203e-01 3.746727752685546875e+01
-2.920655822753906250e+01 -4.007217884063720703e-01 5.569757843017578125e+01
-1.562655830383300781e+01 -3.653172403573989868e-02 3.325774765014648438e+01
-1.295748901367187500e+01 1.497593224048614502e-01 3.534547042846679688e+01
-2.443756294250488281e+01 5.943426489830017090e-01 4.662448501586914062e+01
-1.404534244537353516e+01 5.934909582138061523e-01 3.367337417602539062e+01
-1.292235851287841797e+01 8.156100511550903320e-01 3.527042007446289062e+01
-1.737100601196289062e+01 1.085995316505432129e+00 3.315752410888671875e+01
-1.403728961944580078e+01 1.240072607994079590e+00 3.367213058471679688e+01
-6.175009727478027344e+00 7.954418063163757324e-01 1.946239662170410156e+01
-6.582431793212890625e+00 7.171612381935119629e-01 1.402780914306640625e+01
-6.480449199676513672e+00 8.714874386787414551e-01 1.555341339111328125e+01
-6.194472312927246094e+00 1.161600112915039062e+00 1.953657913208007812e+01
-6.571414947509765625e+00 9.904521703720092773e-01 1.401190757751464844e+01
-6.479760169982910156e+00 1.170589208602905273e+00 1.556011676788330078e+01
-6.837695598602294922e+00 1.682838201522827148e+00 2.157807159423828125e+01
-6.572122573852539062e+00 1.266173839569091797e+00 1.402038860321044922e+01
-6.786160469055175781e+00 1.713354825973510742e+00 1.856229209899902344e+01
-5.559793472290039062e+00 1.695051074028015137e+00 1.755686569213867188e+01
-6.568897247314453125e+00 1.540195345878601074e+00 1.402109050750732422e+01
-5.673564434051513672e+00 1.725814580917358398e+00 1.552813911437988281e+01
-4.945087909698486328e+00 1.760101318359375000e+00 1.354233074188232422e+01
-4.366989135742187500e+00 1.780369520187377930e+00 1.196623325347900391e+01
-4.395157337188720703e+00 1.809639811515808105e+00 1.058367633819580078e+01
-3.991520643234252930e+00 1.828061103820800781e+00 9.617335319519042969e+00
-3.663424730300903320e+00 1.847137093544006348e+00 8.831537246704101562e+00
-3.367316722869873047e+00 1.853447794914245605e+00 8.122444152832031250e+00
-3.443227052688598633e+00 1.863203167915344238e+00 7.379836082458496094e+00
-3.213014125823974609e+00 1.872767210006713867e+00 6.890441417694091797e+00
-1.330052471160888672e+01 -5.408446788787841797e-01 3.667494583129882812e+01
-2.442307090759277344e+01 -3.395356535911560059e-01 4.699331283569335938e+01
-1.763113594055175781e+01 -4.318948835134506226e-02 3.788417816162109375e+01
-1.303163242340087891e+01 1.506337523460388184e-01 3.595493316650390625e+01
-2.442510032653808594e+01 5.961416363716125488e-01 4.701900863647460938e+01
-1.389056015014648438e+01 5.907223820686340332e-01 3.364886093139648438e+01
-1.288495254516601562e+01 8.199828863143920898e-01 3.557137298583984375e+01
-2.256865310668945312e+01 1.418961405754089355e+00 4.346550750732421875e+01
-1.388941097259521484e+01 1.236462831497192383e+00 3.366427230834960938e+01
-6.165184497833251953e+00 8.026525974273681641e-01 1.968135643005371094e+01
-6.573089599609375000e+00 7.211697101593017578e-01 1.414245128631591797e+01
-6.469862937927246094e+00 8.771201968193054199e-01 1.568972778320312500e+01
-6.158043861389160156e+00 1.167469620704650879e+00 1.967162513732910156e+01
-6.571325778961181641e+00 9.976291656494140625e-01 1.414635372161865234e+01
-6.476686477661132812e+00 1.179757475852966309e+00 1.571477413177490234e+01
-6.741919040679931641e+00 1.677801728248596191e+00 2.154974746704101562e+01
-6.570240974426269531e+00 1.275175809860229492e+00 1.415109825134277344e+01
-6.694406509399414062e+00 1.706534385681152344e+00 1.852151298522949219e+01
-5.496626377105712891e+00 1.694696068763732910e+00 1.758098602294921875e+01
-6.556864738464355469e+00 1.548885822296142578e+00 1.412997436523437500e+01
-5.624077320098876953e+00 1.727447628974914551e+00 1.556946945190429688e+01
-4.895450592041015625e+00 1.759534239768981934e+00 1.356042671203613281e+01
-4.330527305603027344e+00 1.782912731170654297e+00 1.200271606445312500e+01
-4.353363990783691406e+00 1.807940483093261719e+00 1.059246826171875000e+01
-3.956275701522827148e+00 1.827650666236877441e+00 9.631965637207031250e+00
-3.631062030792236328e+00 1.846760153770446777e+00 8.844970703125000000e+00
-3.344240665435791016e+00 1.856813311576843262e+00 8.151093482971191406e+00
-3.424365282058715820e+00 1.867341995239257812e+00 7.410170555114746094e+00
-3.190211772918701172e+00 1.873902320861816406e+00 6.907526969909667969e+00
-1.297366619110107422e+01 -5.344551205635070801e-01 3.618692016601562500e+01
-2.449518394470214844e+01 -3.450643420219421387e-01 4.755721282958984375e+01
-1.295981311798095703e+01 1.498237550258636475e-01 3.617002487182617188e+01
-2.442929458618164062e+01 5.983839035034179688e-01 4.745139694213867188e+01
-1.374522209167480469e+01 5.883488655090332031e-01 3.364588165283203125e+01
-1.300864410400390625e+01 8.348034024238586426e-01 3.632808303833007812e+01
-2.241379737854003906e+01 1.417323112487792969e+00 4.355686950683593750e+01
-1.374480247497558594e+01 1.233129382133483887e+00 3.366317749023437500e+01
-6.166825294494628906e+00 8.115571141242980957e-01 1.994251060485839844e+01
-6.575527191162109375e+00 7.265549898147583008e-01 1.428443717956542969e+01
-6.461384296417236328e+00 8.831559419631958008e-01 1.583356952667236328e+01
-6.164335250854492188e+00 1.181693315505981445e+00 1.994783782958984375e+01
-6.560328006744384766e+00 1.003265500068664551e+00 1.425922679901123047e+01
-6.454482078552246094e+00 1.185592651367187500e+00 1.582527828216552734e+01
-6.634083271026611328e+00 1.669659137725830078e+00 2.148099327087402344e+01
-6.562491416931152344e+00 1.283191323280334473e+00 1.427111339569091797e+01
-6.581589221954345703e+00 1.694197297096252441e+00 1.842026901245117188e+01
-5.429833412170410156e+00 1.693241953849792480e+00 1.759346199035644531e+01
-6.553262233734130859e+00 1.559744954109191895e+00 1.425885105133056641e+01
-5.562991619110107422e+00 1.725551605224609375e+00 1.557880020141601562e+01
-4.843744754791259766e+00 1.758240699768066406e+00 1.357273197174072266e+01
-4.277221202850341797e+00 1.778537392616271973e+00 1.199245166778564453e+01
-4.324217796325683594e+00 1.811542510986328125e+00 1.063220787048339844e+01
-3.920235633850097656e+00 1.826894640922546387e+00 9.644640922546386719e+00
-3.598650693893432617e+00 1.846383333206176758e+00 8.858285903930664062e+00
-3.311429262161254883e+00 1.854816555976867676e+00 8.156108856201171875e+00
-3.393157005310058594e+00 1.864790678024291992e+00 7.413874626159667969e+00
-3.163289070129394531e+00 1.872645974159240723e+00 6.915708541870117188e+00
-1.550984668731689453e+01 -7.025524377822875977e-01 3.391080474853515625e+01
-1.293216705322265625e+01 -5.387607812881469727e-01 3.643101501464843750e+01
-2.434384155273437500e+01 -3.468432724475860596e-01 4.763035964965820312e+01
-1.551360225677490234e+01 -4.129914939403533936e-02 3.393613052368164062e+01
-1.293372344970703125e+01 1.495416909456253052e-01 3.645748138427734375e+01
-2.435472297668457031e+01 5.984163284301757812e-01 4.767396163940429688e+01
-1.362520790100097656e+01 5.865073204040527344e-01 3.365369415283203125e+01
-1.286841106414794922e+01 8.318185210227966309e-01 3.629529190063476562e+01
-2.220050621032714844e+01 1.410817265510559082e+00 4.347754669189453125e+01
-1.362475681304931641e+01 1.230614542961120605e+00 3.367102432250976562e+01
-6.140390872955322266e+00 8.156696557998657227e-01 2.008030128479003906e+01
-6.569627761840820312e+00 7.303588986396789551e-01 1.439046478271484375e+01
-6.454308986663818359e+00 8.884538412094116211e-01 1.595935916900634766e+01
-6.156510353088378906e+00 1.191609859466552734e+00 2.014665031433105469e+01
-6.556941986083984375e+00 1.009110569953918457e+00 1.437058734893798828e+01
-6.463072776794433594e+00 1.195805907249450684e+00 1.598979854583740234e+01
-6.302693367004394531e+00 1.601834774017333984e+00 2.063766479492187500e+01
-6.554865837097167969e+00 1.289985299110412598e+00 1.437331390380859375e+01
-6.509758949279785156e+00 1.689915180206298828e+00 1.840145874023437500e+01
-5.371654510498046875e+00 1.691708683967590332e+00 1.760095977783203125e+01
-6.553856849670410156e+00 1.570090532302856445e+00 1.437901782989501953e+01
-5.514048576354980469e+00 1.724994182586669922e+00 1.559625148773193359e+01
-4.798461914062500000e+00 1.756786465644836426e+00 1.358044719696044922e+01
-4.242848396301269531e+00 1.779491424560546875e+00 1.201522350311279297e+01
-4.281219959259033203e+00 1.807102441787719727e+00 1.062197494506835938e+01
-3.889943361282348633e+00 1.826542854309082031e+00 9.656965255737304688e+00
-3.573030948638916016e+00 1.847197771072387695e+00 8.875068664550781250e+00
-3.283625125885009766e+00 1.853282451629638672e+00 8.161082267761230469e+00
-3.365846633911132812e+00 1.862285852432250977e+00 7.415678024291992188e+00
-3.141573905944824219e+00 1.872389078140258789e+00 6.925669670104980469e+00
-1.531202030181884766e+01 -7.006624937057495117e-01 3.380528259277343750e+01
-1.287998867034912109e+01 -5.437180995941162109e-01 3.671025085449218750e+01
-2.416187858581542969e+01 -3.488447964191436768e-01 4.770497131347656250e+01
-1.540067005157470703e+01 -4.280235618352890015e-02 3.401826858520507812e+01
-1.285429096221923828e+01 1.486485749483108521e-01 3.665940856933593750e+01
-2.544804763793945312e+01 6.275843381881713867e-01 5.026802825927734375e+01
-1.346162891387939453e+01 5.833364725112915039e-01 3.360317993164062500e+01
-1.284045791625976562e+01 8.371596932411193848e-01 3.664228057861328125e+01
-1.833939743041992188e+01 1.172281265258789062e+00 3.624329757690429688e+01
-1.349088001251220703e+01 1.228236079216003418e+00 3.369479751586914062e+01
-6.133171081542968750e+00 8.237665295600891113e-01 2.032272338867187500e+01
-6.555537700653076172e+00 7.340667843818664551e-01 1.450003242492675781e+01
-6.438086509704589844e+00 8.936465978622436523e-01 1.608864021301269531e+01
-6.128775596618652344e+00 1.199815154075622559e+00 2.032205963134765625e+01
-6.563420295715332031e+00 1.017662763595581055e+00 1.452551746368408203e+01
-6.460755825042724609e+00 1.205633997917175293e+00 1.615421485900878906e+01
-6.227039813995361328e+00 1.600990295410156250e+00 2.066068267822265625e+01
-6.558776378631591797e+00 1.300588369369506836e+00 1.452264022827148438e+01
-6.465976715087890625e+00 1.695355534553527832e+00 1.849296569824218750e+01
-5.307712554931640625e+00 1.691171526908874512e+00 1.762249946594238281e+01
-7.393612861633300781e+00 1.784923434257507324e+00 1.638023567199707031e+01
-5.456222534179687500e+00 1.724136590957641602e+00 1.561454010009765625e+01
-4.742794513702392578e+00 1.754041671752929688e+00 1.358113765716552734e+01
-4.197507858276367188e+00 1.778437614440917969e+00 1.202701663970947266e+01
-4.254000186920166016e+00 1.811637520790100098e+00 1.066701984405517578e+01
-3.858200311660766602e+00 1.827860355377197266e+00 9.680373191833496094e+00
-3.535422563552856445e+00 1.844167232513427734e+00 8.875399589538574219e+00
-3.253722429275512695e+00 1.852935791015625000e+00 8.173128128051757812e+00
-3.338675260543823242e+00 1.861964821815490723e+00 7.428030967712402344e+00
-3.116995334625244141e+00 1.872567296028137207e+00 6.938975811004638672e+00
-1.515363883972167969e+01 -7.005367279052734375e-01 3.378451538085937500e+01
-1.286131381988525391e+01 -5.502078533172607422e-01 3.709162139892578125e+01
-1.549843025207519531e+01 -4.491961747407913208e-02 3.457088088989257812e+01
-1.291761493682861328e+01 1.494093537330627441e-01 3.727698135375976562e+01
-2.956259155273437500e+01 7.317797541618347168e-01 5.893054962158203125e+01
-1.332513046264648438e+01 5.813316702842712402e-01 3.361885070800781250e+01
-1.281863880157470703e+01 8.430356979370117188e-01 3.701410675048828125e+01
-2.223611640930175781e+01 1.429789781570434570e+00 4.434690475463867188e+01
-1.334670639038085938e+01 1.224914550781250000e+00 3.369202804565429688e+01
-6.123684883117675781e+00 8.317682147026062012e-01 2.056344795227050781e+01
-6.440119266510009766e+00 9.015064835548400879e-01 1.626630020141601562e+01
-6.127745151519775391e+00 1.213534951210021973e+00 2.059131813049316406e+01
-6.546840667724609375e+00 1.022765278816223145e+00 1.463149547576904297e+01
-6.460256576538085938e+00 1.216003060340881348e+00 1.632624816894531250e+01
-6.137657165527343750e+00 1.596596479415893555e+00 2.063754272460937500e+01
-6.537266731262207031e+00 1.306302309036254883e+00 1.461759471893310547e+01
-6.396232128143310547e+00 1.694068789482116699e+00 1.851095008850097656e+01
-5.241416454315185547e+00 1.689902782440185547e+00 1.763616561889648438e+01
-6.535232543945312500e+00 1.589986324310302734e+00 1.462120151519775391e+01
-5.397038459777832031e+00 1.722864866256713867e+00 1.562885379791259766e+01
-4.700140476226806641e+00 1.756138324737548828e+00 1.361913490295410156e+01
-4.157303810119628906e+00 1.779595732688903809e+00 1.205361938476562500e+01
-4.208380222320556641e+00 1.808380961418151855e+00 1.066606521606445312e+01
-3.820557594299316406e+00 1.826413512229919434e+00 9.689015388488769531e+00
-3.500019550323486328e+00 1.842274904251098633e+00 8.881056785583496094e+00
-3.222341299057006836e+00 1.851764917373657227e+00 8.181423187255859375e+00
-3.313044548034667969e+00 1.862535238265991211e+00 7.443847179412841797e+00
-3.089994668960571289e+00 1.871311306953430176e+00 6.946871757507324219e+00
-1.501166725158691406e+01 -7.001204490661621094e-01 3.375153732299804688e+01
-1.284664916992187500e+01 -5.559407472610473633e-01 3.742878723144531250e+01
-1.566597652435302734e+01 -4.702915996313095093e-02 3.524076080322265625e+01
-1.295035076141357422e+01 1.498149335384368896e-01 3.775438308715820312e+01
-2.948426628112792969e+01 7.322097420692443848e-01 5.923799514770507812e+01
-1.322531032562255859e+01 5.803671479225158691e-01 3.367544937133789062e+01
-1.281189250946044922e+01 8.489780426025390625e-01 3.737388229370117188e+01
-2.210294914245605469e+01 1.428517818450927734e+00 4.442911148071289062e+01
-1.322474956512451172e+01 1.222205877304077148e+00 3.369289016723632812e+01
-6.121148109436035156e+00 8.395639061927795410e-01 2.079349708557128906e+01
-6.499679088592529297e+00 7.377784252166748047e-01 1.464114570617675781e+01
-6.438601493835449219e+00 9.079099893569946289e-01 1.641291618347167969e+01
-6.121089458465576172e+00 1.224425792694091797e+00 2.080781555175781250e+01
-6.499239921569824219e+00 1.021968960762023926e+00 1.464837265014648438e+01
-6.440270423889160156e+00 1.221349239349365234e+00 1.642637443542480469e+01
-6.068317413330078125e+00 1.594692230224609375e+00 2.064146041870117188e+01
-6.508301734924316406e+00 1.309174656867980957e+00 1.467636585235595703e+01
-6.336783409118652344e+00 1.693064570426940918e+00 1.852723503112792969e+01
-5.146152973175048828e+00 1.676302909851074219e+00 1.751692581176757812e+01
-6.505418777465820312e+00 1.593395471572875977e+00 1.467809867858886719e+01
-5.343435287475585938e+00 1.720857620239257812e+00 1.563260841369628906e+01
-4.652224063873291016e+00 1.753717780113220215e+00 1.361885738372802734e+01
-4.113043308258056641e+00 1.776402473449707031e+00 1.204792881011962891e+01
-4.176315784454345703e+00 1.808616876602172852e+00 1.068297004699707031e+01
-3.787258625030517578e+00 1.824680328369140625e+00 9.693686485290527344e+00
-3.471414089202880859e+00 1.841573834419250488e+00 8.890234947204589844e+00
-3.196649312973022461e+00 1.851467967033386230e+00 8.191561698913574219e+00
-3.289669752120971680e+00 1.862259864807128906e+00 7.454275608062744141e+00
-3.065830945968627930e+00 1.869620680809020996e+00 6.951271057128906250e+00
-1.757117652893066406e+01 -9.667953848838806152e-01 3.559556579589843750e+01
-1.487738037109375000e+01 -7.010831832885742188e-01 3.378251647949218750e+01
-1.283012676239013672e+01 -5.627915859222412109e-01 3.783164596557617188e+01
-1.747630119323730469e+01 -2.621052265167236328e-01 3.542036437988281250e+01
-1.549320507049560547e+01 -4.841376096010208130e-02 3.519908523559570312e+01
-1.290177440643310547e+01 1.492872834205627441e-01 3.806677627563476562e+01
-1.747686004638671875e+01 4.356847703456878662e-01 3.543844985961914062e+01
-1.309674072265625000e+01 5.787180662155151367e-01 3.371067047119140625e+01
-1.279544162750244141e+01 8.554893732070922852e-01 3.777666091918945312e+01
-1.747102928161621094e+01 1.135986089706420898e+00 3.544364166259765625e+01
-1.310336589813232422e+01 1.220982432365417480e+00 3.374676513671875000e+01
-6.092286586761474609e+00 8.452897667884826660e-01 2.097895431518554688e+01
-6.507087230682373047e+00 7.441340088844299316e-01 1.480389881134033203e+01
-6.436950683593750000e+00 9.155405163764953613e-01 1.658726310729980469e+01
-6.114371299743652344e+00 1.237659096717834473e+00 2.106986808776855469e+01
-6.509749412536621094e+00 1.031513571739196777e+00 1.481832122802734375e+01
-6.434154987335205078e+00 1.231006979942321777e+00 1.658942794799804688e+01
-5.984874248504638672e+00 1.591782808303833008e+00 2.063680267333984375e+01
-8.859497070312500000e+00 1.796117186546325684e+00 2.017759513854980469e+01
-6.263124465942382812e+00 1.690745711326599121e+00 1.853340721130371094e+01
-5.085272312164306641e+00 1.676686167716979980e+00 1.754720497131347656e+01
-7.197775363922119141e+00 1.776975750923156738e+00 1.640226936340332031e+01
-5.292498588562011719e+00 1.722280144691467285e+00 1.567099666595458984e+01
-4.604847431182861328e+00 1.754119992256164551e+00 1.364340400695800781e+01
-4.068888187408447266e+00 1.775902509689331055e+00 1.206298542022705078e+01
-4.134313106536865234e+00 1.806919217109680176e+00 1.069089794158935547e+01
-3.753865718841552734e+00 1.825306296348571777e+00 9.713079452514648438e+00
-3.441668272018432617e+00 1.842713236808776855e+00 8.910292625427246094e+00
-3.159587383270263672e+00 1.847001671791076660e+00 8.185031890869140625e+00
-3.259234428405761719e+00 1.860156297683715820e+00 7.459202766418457031e+00
-3.038809299468994141e+00 1.868365526199340820e+00 6.958968162536621094e+00
-1.734659385681152344e+01 -9.631404280662536621e-01 3.546751022338867188e+01
-1.471829223632812500e+01 -7.008640766143798828e-01 3.375613403320312500e+01
-1.280573940277099609e+01 -5.694453716278076172e-01 3.821970367431640625e+01
-1.733494758605957031e+01 -2.634876668453216553e-01 3.546080780029296875e+01
-1.536649417877197266e+01 -4.993785172700881958e-02 3.526113510131835938e+01
-1.283393383026123047e+01 1.485397219657897949e-01 3.832811355590820312e+01
-1.732931137084960938e+01 4.336886703968048096e-01 3.546634292602539062e+01
-1.298602581024169922e+01 5.778683423995971680e-01 3.379206466674804688e+01
-1.276288604736328125e+01 8.610726594924926758e-01 3.813999557495117188e+01
-1.732699203491210938e+01 1.133511185646057129e+00 3.547873306274414062e+01
-1.299108314514160156e+01 1.220634102821350098e+00 3.382446289062500000e+01
-6.090764045715332031e+00 8.550198078155517578e-01 2.126438331604003906e+01
-6.499835968017578125e+00 7.489160299301147461e-01 1.493575763702392578e+01
-6.409055709838867188e+00 9.195639491081237793e-01 1.669655227661132812e+01
-6.104166507720947266e+00 1.250535368919372559e+00 2.132638931274414062e+01
-6.495216369628906250e+00 1.037231922149658203e+00 1.493363380432128906e+01
-6.400488853454589844e+00 1.235548615455627441e+00 1.668373107910156250e+01
-5.941040039062500000e+00 1.599508881568908691e+00 2.076988029479980469e+01
-6.499930858612060547e+00 1.328207731246948242e+00 1.495228767395019531e+01
-6.196446895599365234e+00 1.690321922302246094e+00 1.856007575988769531e+01
-5.057627677917480469e+00 1.688213944435119629e+00 1.769408798217773438e+01
-7.120986938476562500e+00 1.772124767303466797e+00 1.639026832580566406e+01
-5.225612640380859375e+00 1.718525171279907227e+00 1.566204452514648438e+01
-4.554213523864746094e+00 1.753312945365905762e+00 1.365837001800537109e+01
-4.029062271118164062e+00 1.777336478233337402e+00 1.209103584289550781e+01
-4.092308998107910156e+00 1.805222392082214355e+00 1.069866180419921875e+01
-3.711940526962280273e+00 1.821789145469665527e+00 9.710278511047363281e+00
-3.409718990325927734e+00 1.842715859413146973e+00 8.924747467041015625e+00
-3.135880708694458008e+00 1.850363612174987793e+00 8.213078498840332031e+00
-3.238097190856933594e+00 1.863399267196655273e+00 7.485481262207031250e+00
-3.013314485549926758e+00 1.868066072463989258e+00 6.970126628875732422e+00
-1.729529762268066406e+01 -9.678438901901245117e-01 3.564591598510742188e+01
-1.457487583160400391e+01 -7.003166079521179199e-01 3.371591949462890625e+01
-1.321175956726074219e+01 -5.944763422012329102e-01 3.984660720825195312e+01
-1.799230194091796875e+01 -2.766420841217041016e-01 3.710044860839843750e+01
-1.537701416015625000e+01 -5.164530873298645020e-02 3.559013366699218750e+01
-1.285878276824951172e+01 1.488621681928634644e-01 3.880679702758789062e+01
-2.680982589721679688e+01 6.732199192047119141e-01 5.530908584594726562e+01
-1.296021080017089844e+01 5.802460312843322754e-01 3.404389572143554688e+01
-1.275742149353027344e+01 8.674986362457275391e-01 3.852539443969726562e+01
