# .PCD v0.7 - Point Cloud Data file format
VERSION 0.7
FIELDS x y z
SIZE 4 4 4
TYPE F F F
COUNT 1 1 1
WIDTH 636
HEIGHT 1
VIEWPOINT 0 0 0 1 0 0 0
POINTS 636
DATA ascii
3.486920118331909180e+00 1.726941943168640137e+00 9.659733772277832031e+00
3.229277133941650391e+00 1.765927672386169434e+00 8.942156791687011719e+00
2.967636346817016602e+00 1.775444030761718750e+00 8.213686943054199219e+00
2.414914131164550781e+00 1.788492321968078613e+00 7.719724178314208984e+00
2.257142543792724609e+00 1.802739262580871582e+00 7.210912704467773438e+00
2.115602493286132812e+00 1.811995387077331543e+00 6.754149436950683594e+00
1.775543403625488281e+01 -9.707765579223632812e-01 4.289210510253906250e+01
1.363680934906005859e+01 -3.791481256484985352e-01 4.335221099853515625e+01
1.307115936279296875e+01 -1.061523184180259705e-01 3.156441497802734375e+01
1.156371498107910156e+01 1.715978533029556274e-01 4.325875473022460938e+01
1.155247688293457031e+01 3.056447505950927734e-01 3.176723480224609375e+01
1.219381046295166016e+01 4.659915566444396973e-01 2.943481254577636719e+01
9.776270866394042969e+00 8.153491020202636719e-01 3.655034637451171875e+01
1.031529140472412109e+01 8.074639439582824707e-01 2.835305786132812500e+01
1.064632892608642578e+01 8.059974908828735352e-01 2.281318473815917969e+01
7.677924633026123047e+00 9.947057366371154785e-01 2.437604904174804688e+01
5.986291885375976562e+00 7.785681486129760742e-01 1.644714355468750000e+01
8.371073722839355469e+00 9.840430617332458496e-01 1.793185424804687500e+01
5.829741954803466797e+00 1.098225951194763184e+00 1.849803924560546875e+01
5.821729660034179688e+00 1.058266878128051758e+00 1.598817729949951172e+01
6.904603481292724609e+00 1.099553942680358887e+00 1.478635025024414062e+01
5.012946128845214844e+00 1.239915847778320312e+00 1.589835357666015625e+01
5.589636802673339844e+00 1.160606622695922852e+00 1.347452831268310547e+01
5.856470108032226562e+00 1.177012324333190918e+00 1.253766059875488281e+01
4.726544380187988281e+00 1.446217298507690430e+00 1.498166942596435547e+01
5.364529132843017578e+00 1.360929250717163086e+00 1.292708492279052734e+01
5.229068279266357422e+00 1.567095637321472168e+00 1.259599208831787109e+01
4.756389617919921875e+00 1.643869996070861816e+00 1.145314598083496094e+01
3.872829914093017578e+00 1.700365662574768066e+00 1.061214923858642578e+01
3.519566297531127930e+00 1.725323319435119629e+00 9.639539718627929688e+00
3.252554893493652344e+00 1.760544657707214355e+00 8.904466629028320312e+00
2.996345758438110352e+00 1.774398922920227051e+00 8.199139595031738281e+00
2.439033269882202148e+00 1.785230755805969238e+00 7.697854518890380859e+00
2.277647495269775391e+00 1.797874689102172852e+00 7.184112071990966797e+00
2.137383937835693359e+00 1.809306025505065918e+00 6.737181663513183594e+00
1.667186355590820312e+01 -9.047117233276367188e-01 3.986042404174804688e+01
1.315026664733886719e+01 -3.626926839351654053e-01 4.127631759643554688e+01
1.231211757659912109e+01 -9.997786581516265869e-02 2.942590904235839844e+01
1.190909099578857422e+01 1.729387789964675903e-01 4.390518569946289062e+01
1.153005409240722656e+01 3.010618984699249268e-01 3.134741973876953125e+01
1.230159950256347656e+01 4.651263356208801270e-01 2.938994216918945312e+01
9.792308807373046875e+00 8.045073747634887695e-01 3.608011245727539062e+01
1.035767364501953125e+01 8.018506169319152832e-01 2.814810180664062500e+01
1.070344257354736328e+01 8.033636808395385742e-01 2.271798324584960938e+01
7.756262302398681641e+00 9.925513863563537598e-01 2.431351280212402344e+01
7.905337810516357422e+00 1.017266154289245605e+00 2.147453308105468750e+01
8.420540809631347656e+00 9.816448688507080078e-01 1.786675834655761719e+01
5.877444267272949219e+00 1.093923568725585938e+00 1.841381454467773438e+01
5.833360195159912109e+00 1.049345612525939941e+00 1.583939743041992188e+01
6.936607837677001953e+00 1.095637321472167969e+00 1.471405696868896484e+01
5.059632301330566406e+00 1.236605882644653320e+00 1.584381961822509766e+01
5.616614818572998047e+00 1.155612349510192871e+00 1.340067005157470703e+01
5.911712169647216797e+00 1.178518295288085938e+00 1.253598117828369141e+01
4.736541271209716797e+00 1.432190060615539551e+00 1.482391166687011719e+01
5.394916057586669922e+00 1.356292366981506348e+00 1.286699867248535156e+01
5.262107372283935547e+00 1.562845230102539062e+00 1.254565048217773438e+01
4.792936801910400391e+00 1.641694188117980957e+00 1.142289924621582031e+01
3.917148828506469727e+00 1.702426314353942871e+00 1.061278915405273438e+01
3.563725471496582031e+00 1.729342460632324219e+00 9.650691986083984375e+00
3.290590763092041016e+00 1.763197064399719238e+00 8.907306671142578125e+00
3.026347160339355469e+00 1.774151444435119629e+00 8.188165664672851562e+00
2.473167657852172852e+00 1.789309144020080566e+00 7.707523345947265625e+00
2.306906700134277344e+00 1.799972534179687500e+00 7.185042858123779297e+00
2.168551683425903320e+00 1.814552545547485352e+00 6.749660015106201172e+00
1.686697196960449219e+01 -9.094864130020141602e-01 3.997362899780273438e+01
5.514632225036621094e+00 -1.510671228170394897e-01 1.712326240539550781e+01
1.243016338348388672e+01 -1.009261757135391235e-01 2.944788742065429688e+01
1.195797634124755859e+01 1.704777181148529053e-01 4.354356384277343750e+01
6.490664005279541016e+00 1.675916761159896851e-01 1.747689628601074219e+01
1.240552616119384766e+01 4.648246765136718750e-01 2.937880325317382812e+01
9.891286849975585938e+00 8.023670315742492676e-01 3.599714279174804688e+01
1.044255542755126953e+01 8.008564114570617676e-01 2.810607910156250000e+01
1.072500133514404297e+01 7.991026043891906738e-01 2.257954406738281250e+01
7.814188480377197266e+00 9.895765781402587891e-01 2.423199462890625000e+01
7.940722942352294922e+00 1.012628078460693359e+00 2.136347579956054688e+01
8.438894271850585938e+00 9.768424630165100098e-01 1.776086044311523438e+01
5.906426906585693359e+00 1.088126420974731445e+00 1.830597686767578125e+01
5.902555465698242188e+00 1.052409887313842773e+00 1.587341403961181641e+01
6.971646308898925781e+00 1.093531370162963867e+00 1.466879749298095703e+01
5.109974861145019531e+00 1.236334085464477539e+00 1.582978248596191406e+01
5.651680469512939453e+00 1.153848886489868164e+00 1.336646938323974609e+01
5.924522876739501953e+00 1.172960638999938965e+00 1.246159267425537109e+01
4.754909038543701172e+00 1.423368453979492188e+00 1.472182464599609375e+01
5.417454719543457031e+00 1.351519346237182617e+00 1.280786228179931641e+01
5.295276641845703125e+00 1.560704350471496582e+00 1.251446819305419922e+01
4.824137687683105469e+00 1.639830946922302246e+00 1.139688110351562500e+01
3.953898191452026367e+00 1.703640222549438477e+00 1.060974979400634766e+01
3.592623472213745117e+00 1.728430390357971191e+00 9.635806083679199219e+00
3.320593833923339844e+00 1.764062285423278809e+00 8.902506828308105469e+00
3.053400754928588867e+00 1.774736523628234863e+00 8.182346343994140625e+00
2.490715742111206055e+00 1.784357190132141113e+00 7.679337501525878906e+00
2.325838804244995117e+00 1.796998381614685059e+00 7.166713237762451172e+00
2.184932231903076172e+00 1.810406923294067383e+00 6.728127479553222656e+00
5.787306308746337891e+00 -5.716251730918884277e-01 1.358128833770751953e+01
5.788217067718505859e+00 -3.098196387290954590e-01 1.357852077484130859e+01
1.314507102966308594e+01 -3.572906255722045898e-01 4.030929565429687500e+01
5.792806625366210938e+00 -4.702808335423469543e-02 1.358436489105224609e+01
1.195539760589599609e+01 1.668385416269302368e-01 4.291761016845703125e+01
1.149282073974609375e+01 2.929300069808959961e-01 3.060172080993652344e+01
5.795560836791992188e+00 2.148896157741546631e-01 1.358592128753662109e+01
9.828793525695800781e+00 7.856931686401367188e-01 3.526342391967773438e+01
1.048289871215820312e+01 7.952634096145629883e-01 2.790107917785644531e+01
1.079038429260253906e+01 7.971838712692260742e-01 2.250406455993652344e+01
7.010903358459472656e+00 8.772168159484863281e-01 2.147134208679199219e+01
6.776072978973388672e+00 8.551352024078369141e-01 1.802761268615722656e+01
8.484910011291503906e+00 9.741556048393249512e-01 1.769022369384765625e+01
5.941215991973876953e+00 1.081690907478332520e+00 1.818554687500000000e+01
5.911494731903076172e+00 1.043253183364868164e+00 1.572092342376708984e+01
7.000310420989990234e+00 1.089219689369201660e+00 1.459101295471191406e+01
5.136953353881835938e+00 1.228436589241027832e+00 1.571620273590087891e+01
5.693562984466552734e+00 1.152031540870666504e+00 1.332920646667480469e+01
5.965824604034423828e+00 1.171759724617004395e+00 1.243085479736328125e+01
4.771046638488769531e+00 1.411740422248840332e+00 1.458888149261474609e+01
5.452604770660400391e+00 1.348243594169616699e+00 1.276051235198974609e+01
5.330928802490234375e+00 1.557372331619262695e+00 1.247128200531005859e+01
4.857273578643798828e+00 1.636608362197875977e+00 1.135912990570068359e+01
3.993427038192749023e+00 1.703618764877319336e+00 1.059709930419921875e+01
3.627191066741943359e+00 1.727809309959411621e+00 9.620791435241699219e+00
3.353864908218383789e+00 1.764159798622131348e+00 8.892180442810058594e+00
3.084724187850952148e+00 1.775287151336669922e+00 8.174832344055175781e+00
2.521252393722534180e+00 1.785846710205078125e+00 7.677643299102783203e+00
2.356311559677124023e+00 1.800024867057800293e+00 7.171144008636474609e+00
2.210152387619018555e+00 1.810695290565490723e+00 6.721980571746826172e+00
5.841003417968750000e+00 -5.724089741706848145e-01 1.356914424896240234e+01
6.367892265319824219e+00 -7.426079511642456055e-01 2.256493377685546875e+01
5.587606906890869141e+00 -4.670363664627075195e-01 1.693172836303710938e+01
5.845065116882324219e+00 -3.105943202972412109e-01 1.357373428344726562e+01
1.316292762756347656e+01 -3.550316095352172852e-01 3.986772155761718750e+01
5.844137668609619141e+00 -4.743757843971252441e-02 1.356671619415283203e+01
1.193099308013916016e+01 1.630025804042816162e-01 4.223067855834960938e+01
1.148561382293701172e+01 2.890101075172424316e-01 3.024530410766601562e+01
5.846102237701416016e+00 2.145219892263412476e-01 1.356643390655517578e+01
9.959586143493652344e+00 7.847087383270263672e-01 3.523296356201171875e+01
1.056803226470947266e+01 7.931470870971679688e-01 2.781764793395996094e+01
1.086842155456542969e+01 7.962268590927124023e-01 2.245540046691894531e+01
7.940126895904541016e+00 9.817236661911010742e-01 2.401854515075683594e+01
8.038153648376464844e+00 1.003986477851867676e+00 2.114974975585937500e+01
8.538354873657226562e+00 9.723654389381408691e-01 1.763567161560058594e+01
5.994013309478759766e+00 1.078648328781127930e+00 1.812198066711425781e+01
5.932874202728271484e+00 1.036460757255554199e+00 1.560403251647949219e+01
7.044154167175292969e+00 1.087329268455505371e+00 1.454554176330566406e+01
5.175073623657226562e+00 1.223360776901245117e+00 1.563861560821533203e+01
5.743147373199462891e+00 1.151801109313964844e+00 1.331012344360351562e+01
6.006980419158935547e+00 1.170560956001281738e+00 1.239998149871826172e+01
4.796291351318359375e+00 1.403050899505615234e+00 1.448626899719238281e+01
5.481958389282226562e+00 1.343617439270019531e+00 1.270028400421142578e+01
5.367911338806152344e+00 1.554499268531799316e+00 1.243165111541748047e+01
4.885479927062988281e+00 1.631812691688537598e+00 1.131036853790283203e+01
4.036436080932617188e+00 1.705085754394531250e+00 1.059354305267333984e+01
3.661696434020996094e+00 1.727189302444458008e+00 9.605653762817382812e+00
3.385002374649047852e+00 1.763163208961486816e+00 8.876218795776367188e+00
3.111141920089721680e+00 1.773051261901855469e+00 8.154379844665527344e+00
2.550577878952026367e+00 1.786473512649536133e+00 7.672122478485107422e+00
2.383162975311279297e+00 1.800268054008483887e+00 7.164371013641357422e+00
2.231684923171997070e+00 1.808009862899780273e+00 6.704708576202392578e+00
1.680032539367675781e+01 -8.872390985488891602e-01 3.867963409423828125e+01
1.294756698608398438e+01 -3.469567894935607910e-01 3.880551528930664062e+01
1.277131366729736328e+01 -1.036513596773147583e-01 2.939314651489257812e+01
1.189590740203857422e+01 1.596120446920394897e-01 4.160649871826171875e+01
1.146173286437988281e+01 2.852758765220642090e-01 2.989909172058105469e+01
1.236967372894287109e+01 4.499094486236572266e-01 2.845870399475097656e+01
1.001466274261474609e+01 7.794341444969177246e-01 3.500735855102539062e+01
1.064103603363037109e+01 7.913681268692016602e-01 2.774699974060058594e+01
1.093013381958007812e+01 7.950448393821716309e-01 2.240320587158203125e+01
7.994630336761474609e+00 9.785329699516296387e-01 2.393095970153808594e+01
8.080923080444335938e+00 1.000519394874572754e+00 2.106286621093750000e+01
8.556028366088867188e+00 9.676772952079772949e-01 1.753159904479980469e+01
6.031274318695068359e+00 1.074674248695373535e+00 1.804438781738281250e+01
6.001877307891845703e+00 1.039528965950012207e+00 1.563753128051757812e+01
7.058284282684326172e+00 1.082145094871520996e+00 1.445881843566894531e+01
5.097651004791259766e+00 1.193333745002746582e+00 1.524400901794433594e+01
5.749908924102783203e+00 1.144500732421875000e+00 1.321161556243896484e+01
6.038892745971679688e+00 1.168906450271606445e+00 1.236676120758056641e+01
4.806368350982666016e+00 1.392417550086975098e+00 1.436540794372558594e+01
5.511479854583740234e+00 1.340787410736083984e+00 1.265931510925292969e+01
5.392635822296142578e+00 1.550083875656127930e+00 1.238198471069335938e+01
4.920964241027832031e+00 1.631530523300170898e+00 1.129501724243164062e+01
4.076061248779296875e+00 1.707490682601928711e+00 1.059747695922851562e+01
3.687580347061157227e+00 1.724954843521118164e+00 9.583111763000488281e+00
3.412139177322387695e+00 1.762570619583129883e+00 8.863759994506835938e+00
3.141649723052978516e+00 1.775628924369812012e+00 8.157424926757812500e+00
2.573398113250732422e+00 1.785408616065979004e+00 7.660424709320068359e+00
2.406252861022949219e+00 1.800543308258056641e+00 7.158748626708984375e+00
2.255800008773803711e+00 1.810311913490295410e+00 6.706903457641601562e+00
1.685120964050292969e+01 -8.836038112640380859e-01 3.841085815429687500e+01
6.460502147674560547e+00 -3.251332342624664307e-01 2.229869270324707031e+01
1.295852184295654297e+01 -3.446583747863769531e-01 3.836936187744140625e+01
1.292155265808105469e+01 -1.048514693975448608e-01 2.944320297241210938e+01
1.188404464721679688e+01 1.561452746391296387e-01 4.099595642089843750e+01
1.144836997985839844e+01 2.813627421855926514e-01 2.953988265991210938e+01
1.237420082092285156e+01 4.454934895038604736e-01 2.818614006042480469e+01
1.004262447357177734e+01 7.706397771835327148e-01 3.462478256225585938e+01
1.071879482269287109e+01 7.887837886810302734e-01 2.764632987976074219e+01
1.107397174835205078e+01 7.988722324371337891e-01 2.248855972290039062e+01
8.054738998413085938e+00 9.744684100151062012e-01 2.382012557983398438e+01
8.129146575927734375e+00 9.963476657867431641e-01 2.095863342285156250e+01
8.592844963073730469e+00 9.641125798225402832e-01 1.744461059570312500e+01
5.658350467681884766e+00 9.967858791351318359e-01 1.672463226318359375e+01
6.026637554168701172e+00 1.033489465713500977e+00 1.553172206878662109e+01
7.099745273590087891e+00 1.079993128776550293e+00 1.440962314605712891e+01
5.195671081542968750e+00 1.202635288238525391e+00 1.534995651245117188e+01
5.802284240722656250e+00 1.144908308982849121e+00 1.319962024688720703e+01
6.084157466888427734e+00 1.168557524681091309e+00 1.234458637237548828e+01
4.831493377685546875e+00 1.384107470512390137e+00 1.426663208007812500e+01
5.544996261596679688e+00 1.337327480316162109e+00 1.260992336273193359e+01
5.421153068542480469e+00 1.544936180114746094e+00 1.232399940490722656e+01
4.955913066864013672e+00 1.629102230072021484e+00 1.126244640350341797e+01
4.104094982147216797e+00 1.702713727951049805e+00 1.055487918853759766e+01
3.725510120391845703e+00 1.725993871688842773e+00 9.576947212219238281e+00
3.452418327331542969e+00 1.766319274902343750e+00 8.871417045593261719e+00
3.168653011322021484e+00 1.773792982101440430e+00 8.138613700866699219e+00
2.601427793502807617e+00 1.785173892974853516e+00 7.651006698608398438e+00
2.431191682815551758e+00 1.799396514892578125e+00 7.146263122558593750e+00
2.276590347290039062e+00 1.807132482528686523e+00 6.687650203704833984e+00
5.704424858093261719e+00 -7.768892049789428711e-01 1.670371818542480469e+01
1.698297500610351562e+01 -8.842537999153137207e-01 3.832869720458984375e+01
1.298262596130371094e+01 -3.427591323852539062e-01 3.798096466064453125e+01
1.304234409332275391e+01 -1.058104932308197021e-01 2.942489814758300781e+01
1.186223030090332031e+01 1.526454836130142212e-01 4.036688613891601562e+01
1.153393650054931641e+01 2.799329161643981934e-01 2.944001007080078125e+01
1.237122631072998047e+01 4.408918023109436035e-01 2.790112686157226562e+01
1.014857387542724609e+01 7.679738998413085938e-01 3.451678848266601562e+01
1.081273651123046875e+01 7.874281406402587891e-01 2.758827209472656250e+01
1.116253185272216797e+01 7.986849546432495117e-01 2.246038246154785156e+01
8.136145591735839844e+00 9.730427861213684082e-01 2.377346420288085938e+01
8.198595046997070312e+00 9.948377609252929688e-01 2.091013336181640625e+01
8.638031959533691406e+00 9.615429043769836426e-01 1.737547111511230469e+01
5.678839206695556641e+00 9.891753792762756348e-01 1.658480262756347656e+01
6.116304874420166016e+00 1.038596272468566895e+00 1.559319210052490234e+01
7.140941143035888672e+00 1.077844262123107910e+00 1.436031627655029297e+01
5.246057033538818359e+00 1.200833916664123535e+00 1.531387233734130859e+01
5.840895175933837891e+00 1.142626643180847168e+00 1.315644168853759766e+01
6.105377197265625000e+00 1.163642883300781250e+00 1.227407264709472656e+01
4.865644931793212891e+00 1.378548264503479004e+00 1.419612598419189453e+01
5.583881378173828125e+00 1.335223078727722168e+00 1.257318973541259766e+01
5.460611820220947266e+00 1.542983293533325195e+00 1.229139328002929688e+01
4.989078521728515625e+00 1.626151442527770996e+00 1.122614765167236328e+01
4.126807212829589844e+00 1.695858359336853027e+00 1.049933242797851562e+01
3.764165639877319336e+00 1.727364659309387207e+00 9.572468757629394531e+00
3.483441114425659180e+00 1.765325546264648438e+00 8.855108261108398438e+00
3.201302051544189453e+00 1.775142669677734375e+00 8.134305953979492188e+00
2.627516508102416992e+00 1.783645749092102051e+00 7.635945320129394531e+00
2.456070899963378906e+00 1.798250436782836914e+00 7.133690834045410156e+00
2.304211854934692383e+00 1.809405922889709473e+00 6.688487052917480469e+00
1.687734413146972656e+01 -8.735094070434570312e-01 3.776944732666015625e+01
1.300004196166992188e+01 -3.410821259021759033e-01 3.764508056640625000e+01
1.315267181396484375e+01 -1.066859737038612366e-01 2.942394828796386719e+01
1.182370758056640625e+01 1.494721919298171997e-01 3.977347946166992188e+01
1.163371181488037109e+01 2.793585062026977539e-01 2.942224121093750000e+01
1.236329650878906250e+01 4.368252158164978027e-01 2.764854621887207031e+01
1.026492595672607422e+01 7.676438689231872559e-01 3.451159286499023438e+01
1.084933185577392578e+01 7.831148505210876465e-01 2.742777252197265625e+01
8.765643119812011719e+00 6.228286623954772949e-01 1.749943733215332031e+01
8.180734634399414062e+00 9.688624739646911621e-01 2.366093444824218750e+01
8.232614517211914062e+00 9.905009865760803223e-01 2.080441665649414062e+01
8.657660484313964844e+00 9.572660923004150391e-01 1.727862930297851562e+01
5.696298599243164062e+00 9.827718138694763184e-01 1.646689414978027344e+01
6.130712032318115234e+00 1.032383441925048828e+00 1.548670101165771484e+01
7.168119907379150391e+00 1.074817299842834473e+00 1.430216693878173828e+01
5.123870372772216797e+00 1.161828517913818359e+00 1.480541133880615234e+01
5.850407600402832031e+00 1.136130094528198242e+00 1.306709480285644531e+01
6.132278442382812500e+00 1.161149024963378906e+00 1.223170948028564453e+01
4.880221843719482422e+00 1.369763016700744629e+00 1.409424209594726562e+01
5.612754821777343750e+00 1.332400321960449219e+00 1.253201103210449219e+01
5.484553337097167969e+00 1.538576364517211914e+00 1.224158668518066406e+01
5.002403259277343750e+00 1.618788123130798340e+00 1.116161823272705078e+01
4.163392543792724609e+00 1.697076916694641113e+00 1.049556064605712891e+01
3.793467044830322266e+00 1.726789355278015137e+00 9.558817863464355469e+00
3.509765863418579102e+00 1.764370203018188477e+00 8.840519905090332031e+00
3.231879949569702148e+00 1.777721166610717773e+00 8.137015342712402344e+00
2.655314207077026367e+00 1.786033868789672852e+00 7.638776779174804688e+00
2.478444337844848633e+00 1.798063993453979492e+00 7.125995635986328125e+00
2.325823783874511719e+00 1.809726595878601074e+00 6.683101654052734375e+00
5.552339076995849609e+00 -4.433638155460357666e-01 1.589639186859130859e+01
1.656085395812988281e+01 -8.512225747108459473e-01 3.669942092895507812e+01
5.479744434356689453e+00 -1.427419781684875488e-01 1.568153572082519531e+01
1.327605724334716797e+01 -1.076622009277343750e-01 2.941017723083496094e+01
6.636330127716064453e+00 8.218409866094589233e-02 2.202790069580078125e+01
1.176447010040283203e+01 2.790305614471435547e-01 2.943698501586914062e+01
1.235754585266113281e+01 4.322844147682189941e-01 2.736612892150878906e+01
1.036478328704833984e+01 7.646066546440124512e-01 3.438570404052734375e+01
1.092824554443359375e+01 7.807626128196716309e-01 2.733401679992675781e+01
8.785519599914550781e+00 6.192240715026855469e-01 1.737980079650878906e+01
5.302158355712890625e+00 6.209024190902709961e-01 1.515526962280273438e+01
8.286532402038574219e+00 9.872311353683471680e-01 2.071848487854003906e+01
8.706490516662597656e+00 9.551999568939208984e-01 1.721829414367675781e+01
5.236087799072265625e+00 8.934535980224609375e-01 1.495890998840332031e+01
6.190378665924072266e+00 1.032418251037597656e+00 1.547157764434814453e+01
7.189849853515625000e+00 1.069860339164733887e+00 1.421529483795166016e+01
5.258502006530761719e+00 1.179415225982666016e+00 1.501623249053955078e+01
5.876884460449218750e+00 1.131640791893005371e+00 1.299837303161621094e+01
6.181545734405517578e+00 1.161651968955993652e+00 1.221808528900146484e+01
4.908773422241210938e+00 1.362933754920959473e+00 1.401052474975585938e+01
5.644680500030517578e+00 1.328755855560302734e+00 1.248057079315185547e+01
5.514614582061767578e+00 1.534121870994567871e+00 1.218887329101562500e+01
5.036710262298583984e+00 1.616367220878601074e+00 1.112881660461425781e+01
4.196651458740234375e+00 1.694685101509094238e+00 1.046744441986083984e+01
3.827713012695312500e+00 1.726174592971801758e+00 9.543081283569335938e+00
3.547240495681762695e+00 1.766660928726196289e+00 8.840436935424804688e+00
3.258001089096069336e+00 1.775490164756774902e+00 8.116085052490234375e+00
2.678727865219116211e+00 1.782782316207885742e+00 7.616162300109863281e+00
2.501932144165039062e+00 1.795992493629455566e+00 7.109588623046875000e+00
2.348342180252075195e+00 1.808036565780639648e+00 6.669115066528320312e+00
5.749281406402587891e+00 -7.611620426177978516e-01 1.627561569213867188e+01
5.787106990814208984e+00 -4.578134119510650635e-01 1.637545776367187500e+01
1.655513572692871094e+01 -8.451263904571533203e-01 3.633094406127929688e+01
5.795841693878173828e+00 -1.499094367027282715e-01 1.639293479919433594e+01
1.339619922637939453e+01 -1.086100637912750244e-01 2.938861656188964844e+01
1.179141902923583984e+01 1.430639028549194336e-01 3.862603759765625000e+01
1.188725185394287109e+01 2.785093784332275391e-01 2.943076896667480469e+01
1.211923885345458984e+01 4.197713136672973633e-01 2.657829284667968750e+01
5.351373195648193359e+00 3.894825577735900879e-01 1.752084541320800781e+01
1.099912643432617188e+01 7.778869867324829102e-01 2.722151565551757812e+01
8.867315292358398438e+00 6.200088858604431152e-01 1.738312149047851562e+01
5.807128906250000000e+00 6.724923253059387207e-01 1.640555000305175781e+01
8.341426849365234375e+00 9.841439127922058105e-01 2.063614463806152344e+01
8.744100570678710938e+00 9.519515633583068848e-01 1.713648605346679688e+01
5.796816825866699219e+00 9.783942103385925293e-01 1.636830139160156250e+01
6.225321769714355469e+00 1.028375148773193359e+00 1.539515590667724609e+01
7.228275775909423828e+00 1.067453742027282715e+00 1.416222667694091797e+01
5.266189098358154297e+00 1.168464899063110352e+00 1.486342048645019531e+01
5.875613212585449219e+00 1.121938347816467285e+00 1.286978244781494141e+01
6.219015598297119141e+00 1.159958720207214355e+00 1.218119144439697266e+01
4.932784080505371094e+00 1.355013251304626465e+00 1.391552543640136719e+01
5.677957534790039062e+00 1.325500845909118652e+00 1.243268489837646484e+01
5.553445339202880859e+00 1.532176494598388672e+00 1.215598583221435547e+01
5.076613426208496094e+00 1.615784645080566406e+00 1.110853862762451172e+01
4.245357513427734375e+00 1.698535442352294922e+00 1.047771644592285156e+01
3.862634897232055664e+00 1.725892186164855957e+00 9.529051780700683594e+00
3.586239337921142578e+00 1.769681096076965332e+00 8.843841552734375000e+00
3.291380405426025391e+00 1.777239322662353516e+00 8.113234519958496094e+00
2.714451313018798828e+00 1.787725210189819336e+00 7.628437042236328125e+00
2.529900789260864258e+00 1.797167062759399414e+00 7.105934143066406250e+00
2.372089862823486328e+00 1.807338476181030273e+00 6.658703804016113281e+00
5.840005397796630859e+00 -7.667870521545410156e-01 1.636848068237304688e+01
5.839870929718017578e+00 -4.583452641963958740e-01 1.636095046997070312e+01
1.670342254638671875e+01 -8.477584719657897949e-01 3.635322570800781250e+01
5.854038238525390625e+00 -1.505091190338134766e-01 1.639347648620605469e+01
1.345755290985107422e+01 -1.090834140777587891e-01 2.927914810180664062e+01
1.072278690338134766e+01 1.278456449508666992e-01 3.473432540893554688e+01
6.262686252593994141e+00 1.452084630727767944e-01 1.536614799499511719e+01
1.218763065338134766e+01 4.186003208160400391e-01 2.650739479064941406e+01
5.404021263122558594e+00 3.888450562953948975e-01 1.749631881713867188e+01
1.105362701416015625e+01 7.750273346900939941e-01 2.711094856262207031e+01
8.985846519470214844e+00 6.240365505218505859e-01 1.747964477539062500e+01
5.859299659729003906e+00 6.721424460411071777e-01 1.638912773132324219e+01
8.377525329589843750e+00 9.802657961845397949e-01 2.053956604003906250e+01
8.771385192871093750e+00 9.486770629882812500e-01 1.705744361877441406e+01
5.832053661346435547e+00 9.752691984176635742e-01 1.630491828918457031e+01
6.202752113342285156e+00 1.016369342803955078e+00 1.520182037353515625e+01
7.261762619018554688e+00 1.065508484840393066e+00 1.411818790435791016e+01
5.267815113067626953e+00 1.158179163932800293e+00 1.472101974487304688e+01
5.907660961151123047e+00 1.120040655136108398e+00 1.283318328857421875e+01
6.267263889312744141e+00 1.161526560783386230e+00 1.218112277984619141e+01
4.954973697662353516e+00 1.348803400993347168e+00 1.384000015258789062e+01
5.707808017730712891e+00 1.323071599006652832e+00 1.239493751525878906e+01
5.570800304412841797e+00 1.526183366775512695e+00 1.209340953826904297e+01
5.095697402954101562e+00 1.610528349876403809e+00 1.105837154388427734e+01
4.272240161895751953e+00 1.695893049240112305e+00 1.044973468780517578e+01
3.887300014495849609e+00 1.723333597183227539e+00 9.504144668579101562e+00
3.620682001113891602e+00 1.772738575935363770e+00 8.848967552185058594e+00
3.316827058792114258e+00 1.777033805847167969e+00 8.102910995483398438e+00
2.733754396438598633e+00 1.784508943557739258e+00 7.607062339782714844e+00
2.548236608505249023e+00 1.794201254844665527e+00 7.087022781372070312e+00
2.393627166748046875e+00 1.807660698890686035e+00 6.653098106384277344e+00
5.919640064239501953e+00 -7.698414325714111328e-01 1.640144348144531250e+01
1.643516731262207031e+01 -8.285649418830871582e-01 3.542652130126953125e+01
1.363737010955810547e+01 -6.480010747909545898e-01 4.362974548339843750e+01
1.333726215362548828e+01 -3.405441939830780029e-01 3.692143249511718750e+01
1.352015113830566406e+01 -1.095611751079559326e-01 2.913347434997558594e+01
1.085240173339843750e+01 1.267938762903213501e-01 3.470243453979492188e+01
6.320482254028320312e+00 1.447900533676147461e-01 1.534679508209228516e+01
1.235121345520019531e+01 4.201031029224395752e-01 2.660586166381835938e+01
6.799601078033447266e+00 4.828537106513977051e-01 2.173196792602539062e+01
1.112091445922851562e+01 7.720069885253906250e-01 2.699264526367187500e+01
8.993690490722656250e+00 6.196820139884948730e-01 1.733837509155273438e+01
5.928831100463867188e+00 6.727255582809448242e-01 1.639388084411621094e+01
8.446639060974121094e+00 9.789539575576782227e-01 2.049398040771484375e+01
8.792427062988281250e+00 9.437590837478637695e-01 1.694542884826660156e+01
5.899230003356933594e+00 9.760115742683410645e-01 1.630412292480468750e+01
6.225688934326171875e+00 1.010609865188598633e+00 1.509966659545898438e+01
7.284943103790283203e+00 1.060966014862060547e+00 1.403661060333251953e+01
5.276228427886962891e+00 1.147837877273559570e+00 1.457600116729736328e+01
6.018502235412597656e+00 1.131681799888610840e+00 1.294889545440673828e+01
6.319192886352539062e+00 1.162539362907409668e+00 1.217226314544677734e+01
4.985296726226806641e+00 1.342903614044189453e+00 1.376561737060546875e+01
5.741426467895507812e+00 1.320015072822570801e+00 1.234871196746826172e+01
5.606680870056152344e+00 1.523559808731079102e+00 1.205494976043701172e+01
5.131984233856201172e+00 1.608900547027587891e+00 1.103069114685058594e+01
4.312748432159423828e+00 1.696476221084594727e+00 1.043955230712890625e+01
3.920572042465209961e+00 1.722391486167907715e+00 9.486249923706054688e+00
3.662828445434570312e+00 1.777217030525207520e+00 8.859327316284179688e+00
3.356212377548217773e+00 1.781965851783752441e+00 8.114309310913085938e+00
2.765590667724609375e+00 1.786864995956420898e+00 7.608069419860839844e+00
2.578819751739501953e+00 1.797230839729309082e+00 7.090498924255371094e+00
2.414652347564697266e+00 1.804982662200927734e+00 6.635241985321044922e+00
6.008501529693603516e+00 -7.740448713302612305e-01 1.645843696594238281e+01
6.015209197998046875e+00 -4.636173248291015625e-01 1.646978569030761719e+01
1.638255882263183594e+01 -8.204459547996520996e-01 3.497670745849609375e+01
1.377787590026855469e+01 -6.484454870223999023e-01 4.351844024658203125e+01
6.291144847869873047e+00 -1.595426499843597412e-01 1.721796226501464844e+01
1.358440780639648438e+01 -1.100505292415618896e-01 2.899317169189453125e+01
5.479487895965576172e+00 6.274115294218063354e-02 1.729880142211914062e+01
1.223932743072509766e+01 2.770413160324096680e-01 2.941180419921875000e+01
1.207351112365722656e+01 4.067060351371765137e-01 2.576006889343261719e+01
9.877215385437011719e+00 6.923182010650634766e-01 3.116700363159179688e+01
1.115828514099121094e+01 7.669873237609863281e-01 2.680407333374023438e+01
9.035844802856445312e+00 6.177438497543334961e-01 1.726458358764648438e+01
6.009460449218750000e+00 6.745417714118957520e-01 1.642837142944335938e+01
8.500936508178710938e+00 9.759697914123535156e-01 2.041311836242675781e+01
8.838706016540527344e+00 9.416115283966064453e-01 1.688303947448730469e+01
5.975399494171142578e+00 9.782149195671081543e-01 1.632743453979492188e+01
6.285576820373535156e+00 1.010906338691711426e+00 1.508784103393554688e+01
7.326138019561767578e+00 1.059104681015014648e+00 1.399040985107421875e+01
5.333710193634033203e+00 1.148283004760742188e+00 1.456784534454345703e+01
6.095545291900634766e+00 1.136840462684631348e+00 1.298996353149414062e+01
6.377613067626953125e+00 1.164735198020935059e+00 1.217554378509521484e+01
5.014456748962402344e+00 1.336826205253601074e+00 1.368932819366455078e+01
5.774782657623291016e+00 1.316961526870727539e+00 1.230240726470947266e+01
5.627153396606445312e+00 1.516841053962707520e+00 1.198401451110839844e+01
5.157178401947021484e+00 1.603866577148437500e+00 1.097956371307373047e+01
4.340287685394287109e+00 1.692011117935180664e+00 1.039818477630615234e+01
3.968966245651245117e+00 1.728069186210632324e+00 9.504642486572265625e+00
3.705098867416381836e+00 1.781695127487182617e+00 8.869496345520019531e+00
3.380609512329101562e+00 1.778943300247192383e+00 8.089359283447265625e+00
2.791405200958251953e+00 1.785342216491699219e+00 7.592447757720947266e+00
2.597372055053710938e+00 1.791919469833374023e+00 7.060980319976806641e+00
2.446287870407104492e+00 1.810230255126953125e+00 6.646415710449218750e+00
1.649834251403808594e+01 -8.215990662574768066e-01 3.493769836425781250e+01
1.389014244079589844e+01 -6.484621763229370117e-01 4.339873886108398438e+01
1.342835235595703125e+01 -3.385827541351318359e-01 3.639635086059570312e+01
1.344734096527099609e+01 -1.089123636484146118e-01 2.846751403808593750e+01
1.167569541931152344e+01 1.314080804586410522e-01 3.646201324462890625e+01
1.235178565979003906e+01 2.767518460750579834e-01 2.942116355895996094e+01
1.208687210083007812e+01 4.038211107254028320e-01 2.557918739318847656e+01
9.955542564392089844e+00 6.901378035545349121e-01 3.107490730285644531e+01
6.352797031402587891e+00 4.330231249332427979e-01 1.512640762329101562e+01
1.114712619781494141e+01 7.570391297340393066e-01 2.113672065734863281e+01
8.605097770690917969e+00 9.570718407630920410e-01 2.329715919494628906e+01
8.549529075622558594e+00 9.736932516098022461e-01 2.034950256347656250e+01
8.871181488037109375e+00 9.390408992767333984e-01 1.681634902954101562e+01
6.055026531219482422e+00 9.823969602584838867e-01 1.638540649414062500e+01
6.434250354766845703e+00 1.026694059371948242e+00 1.530912685394287109e+01
7.337442874908447266e+00 1.054090738296508789e+00 1.390558815002441406e+01
5.366981983184814453e+00 1.145249962806701660e+00 1.451737880706787109e+01
6.087706565856933594e+00 1.127521634101867676e+00 1.286805725097656250e+01
6.431627750396728516e+00 1.167316794395446777e+00 1.218544673919677734e+01
5.043599128723144531e+00 1.332820653915405273e+00 1.363619041442871094e+01
5.805719375610351562e+00 1.314924955368041992e+00 1.226805114746093750e+01
5.654549598693847656e+00 1.513816833496093750e+00 1.194477367401123047e+01
5.184833526611328125e+00 1.601501226425170898e+00 1.094902229309082031e+01
4.366766452789306641e+00 1.689373970031738281e+00 1.036996746063232422e+01
3.998014926910400391e+00 1.727499246597290039e+00 9.490362167358398438e+00
3.731391429901123047e+00 1.780743241310119629e+00 8.854245185852050781e+00
3.411311149597167969e+00 1.781523466110229492e+00 8.091398239135742188e+00
2.810460329055786133e+00 1.782129049301147461e+00 7.570879936218261719e+00
2.622225761413574219e+00 1.793590426445007324e+00 7.060136795043945312e+00
2.465105295181274414e+00 1.808573007583618164e+00 6.633305072784423828e+00
1.612465286254882812e+01 -7.977748513221740723e-01 3.382468795776367188e+01
5.540478706359863281e+00 -2.562596201896667480e-01 1.709474182128906250e+01
1.328200817108154297e+01 -3.326745629310607910e-01 3.559738159179687500e+01
1.352489852905273438e+01 -1.095065549015998840e-01 2.836207199096679688e+01
1.176976490020751953e+01 1.298458576202392578e-01 3.629722595214843750e+01
1.247904872894287109e+01 2.763220071792602539e-01 2.942173576354980469e+01
1.204191112518310547e+01 3.985057175159454346e-01 2.524413299560546875e+01
1.006318283081054688e+01 6.887553930282592773e-01 3.101921844482421875e+01
1.121393394470214844e+01 7.569884061813354492e-01 2.642939567565917969e+01
1.141511631011962891e+01 7.693021297454833984e-01 2.145399475097656250e+01
8.616280555725097656e+00 9.482127428054809570e-01 2.306704902648925781e+01
8.609985351562500000e+00 9.715113639831542969e-01 2.028496170043945312e+01
8.902705192565917969e+00 9.354215264320373535e-01 1.672733116149902344e+01
6.224768161773681641e+00 9.995258450508117676e-01 1.665680885314941406e+01
7.371461391448974609e+00 1.051300168037414551e+00 1.384693527221679688e+01
5.374034881591796875e+00 1.135075926780700684e+00 1.437434768676757812e+01
6.174333095550537109e+00 1.134417295455932617e+00 1.292846012115478516e+01
6.498705863952636719e+00 1.171031594276428223e+00 1.220405197143554688e+01
5.076774597167968750e+00 1.328029513359069824e+00 1.357289123535156250e+01
5.842040061950683594e+00 1.312647938728332520e+00 1.222877693176269531e+01
5.687983036041259766e+00 1.510746479034423828e+00 1.190250968933105469e+01
5.200957775115966797e+00 1.593852043151855469e+00 1.087991523742675781e+01
4.399296760559082031e+00 1.686991930007934570e+00 1.034121513366699219e+01
4.024246215820312500e+00 1.723582267761230469e+00 9.455744743347167969e+00
3.775343179702758789e+00 1.785949945449829102e+00 8.867713928222656250e+00
3.445522785186767578e+00 1.783672332763671875e+00 8.089725494384765625e+00
2.842964649200439453e+00 1.784917831420898438e+00 7.573392391204833984e+00
2.648738861083984375e+00 1.793841361999511719e+00 7.052364826202392578e+00
2.491415739059448242e+00 1.809858918190002441e+00 6.629732608795166016e+00
6.062136650085449219e+00 -7.606028914451599121e-01 1.608044624328613281e+01
1.611239624023437500e+01 -7.920435667037963867e-01 3.348245620727539062e+01
5.592497348785400391e+00 -2.563009858131408691e-01 1.704201126098632812e+01
1.339897346496582031e+01 -3.334105610847473145e-01 3.551289749145507812e+01
1.361053848266601562e+01 -1.101643070578575134e-01 2.827446746826171875e+01
1.187276744842529297e+01 1.284027695655822754e-01 3.616264343261718750e+01
5.823951244354248047e+00 1.274571120738983154e-01 1.359228801727294922e+01
1.214215087890625000e+01 3.980450630187988281e-01 2.521606254577636719e+01
1.015744590759277344e+01 6.864916086196899414e-01 3.092326164245605469e+01
5.822337150573730469e+00 3.892720937728881836e-01 1.358364772796630859e+01
1.151918315887451172e+01 7.704192996025085449e-01 2.145959663391113281e+01
6.767249107360839844e+00 7.369596362113952637e-01 1.791638183593750000e+01
5.823624134063720703e+00 6.510937809944152832e-01 1.358177947998046875e+01
8.929918289184570312e+00 9.314132928848266602e-01 1.663126564025878906e+01
6.442460536956787109e+00 1.023931026458740234e+00 1.704859924316406250e+01
5.831749916076660156e+00 9.138351082801818848e-01 1.359585571289062500e+01
7.403260231018066406e+00 1.048245429992675781e+00 1.378470230102539062e+01
5.429483413696289062e+00 1.135233998298645020e+00 1.436205959320068359e+01
6.252824306488037109e+00 1.139731645584106445e+00 1.297043991088867188e+01
6.560347080230712891e+00 1.173733353614807129e+00 1.221179485321044922e+01
5.110258579254150391e+00 1.323425054550170898e+00 1.351139545440673828e+01
5.875557899475097656e+00 1.309795022010803223e+00 1.218402099609375000e+01
5.718594074249267578e+00 1.506996154785156250e+00 1.185479354858398438e+01
5.233016490936279297e+00 1.591185450553894043e+00 1.084476757049560547e+01
4.434016704559326172e+00 1.685502409934997559e+00 1.031781482696533203e+01
4.059626579284667969e+00 1.723636865615844727e+00 9.442806243896484375e+00
3.803128004074096680e+00 1.783504724502563477e+00 8.843044281005859375e+00
3.472795963287353516e+00 1.782243251800537109e+00 8.071706771850585938e+00
2.869287490844726562e+00 1.783828854560852051e+00 7.559334754943847656e+00
2.673848628997802734e+00 1.793166518211364746e+00 7.040855407714843750e+00
2.512226581573486328e+00 1.807184338569641113e+00 6.611565589904785156e+00
1.618172836303710938e+01 -7.911072969436645508e-01 3.335789108276367188e+01
1.340399932861328125e+01 -6.095429658889770508e-01 4.041693496704101562e+01
1.334745597839355469e+01 -3.302896022796630859e-01 3.504263687133789062e+01
1.357443809509277344e+01 -1.098405346274375916e-01 2.797426223754882812e+01
1.183388996124267578e+01 1.258281469345092773e-01 3.566580200195312500e+01
5.866619110107421875e+00 1.271172165870666504e-01 1.357392978668212891e+01
1.237412166595458984e+01 4.024025201797485352e-01 2.549264144897460938e+01
1.026775741577148438e+01 6.865605115890502930e-01 3.093107414245605469e+01
5.873703002929687500e+00 3.895112276077270508e-01 1.358548927307128906e+01
1.159128379821777344e+01 7.702305316925048828e-01 2.143211746215820312e+01
8.728909492492675781e+00 9.421624541282653809e-01 2.289215660095214844e+01
5.863873004913330078e+00 6.504902243614196777e-01 1.355793571472167969e+01
8.963097572326660156e+00 9.290516972541809082e-01 1.656802177429199219e+01
6.527287960052490234e+00 1.028426885604858398e+00 1.711040115356445312e+01
5.883137226104736328e+00 9.148511886596679688e-01 1.359764957427978516e+01
7.435116767883300781e+00 1.046317458152770996e+00 1.374035072326660156e+01
5.437577724456787109e+00 1.127198934555053711e+00 1.424806785583496094e+01
6.330996036529541016e+00 1.146200895309448242e+00 1.302787876129150391e+01
6.620479583740234375e+00 1.177326202392578125e+00 1.223147201538085938e+01
5.137741088867187500e+00 1.319247245788574219e+00 1.345624351501464844e+01
5.898990154266357422e+00 1.306223273277282715e+00 1.213510704040527344e+01
5.734931468963623047e+00 1.501249313354492188e+00 1.179393100738525391e+01
5.258364200592041016e+00 1.588302493095397949e+00 1.081049346923828125e+01
4.455371379852294922e+00 1.681089282035827637e+00 1.027848148345947266e+01
4.092384815216064453e+00 1.724723696708679199e+00 9.437298774719238281e+00
3.836342811584472656e+00 1.785833954811096191e+00 8.843736648559570312e+00
3.505913972854614258e+00 1.786016702651977539e+00 8.078794479370117188e+00
2.896489858627319336e+00 1.785788774490356445e+00 7.559457778930664062e+00
2.700107812881469727e+00 1.795764803886413574e+00 7.043376445770263672e+00
2.533653020858764648e+00 1.807509779930114746e+00 6.605505943298339844e+00
5.653392314910888672e+00 -5.698829889297485352e-01 1.684763336181640625e+01
1.613506317138671875e+01 -7.838484048843383789e-01 3.295352935791015625e+01
1.343302822113037109e+01 -6.054203510284423828e-01 4.001299667358398438e+01
1.338883876800537109e+01 -3.292000889778137207e-01 3.476764678955078125e+01
1.358186531066894531e+01 -1.098624691367149353e-01 2.773033905029296875e+01
1.162447929382324219e+01 1.211876869201660156e-01 3.460977935791015625e+01
1.273202228546142578e+01 2.727079391479492188e-01 2.916484451293945312e+01
8.557412147521972656e+00 2.757065296173095703e-01 1.746639442443847656e+01
1.051542854309082031e+01 6.944861412048339844e-01 3.129319000244140625e+01
1.171887302398681641e+01 7.698217034339904785e-01 2.683461570739746094e+01
1.158932018280029297e+01 7.643400430679321289e-01 2.124211692810058594e+01
8.791887283325195312e+00 9.392504096031188965e-01 2.280596542358398438e+01
8.745088577270507812e+00 9.613819122314453125e-01 2.001801872253417969e+01
8.996949195861816406e+00 9.258411526679992676e-01 1.648599624633789062e+01
6.725025653839111328e+00 1.048986673355102539e+00 1.743666076660156250e+01
6.428527832031250000e+00 9.908448457717895508e-01 1.471010875701904297e+01
7.462460994720458984e+00 1.042735219001770020e+00 1.367100811004638672e+01
5.469638347625732422e+00 1.122646331787109375e+00 1.417597961425781250e+01
6.376925945281982422e+00 1.145517468452453613e+00 1.300104904174804688e+01
6.677660942077636719e+00 1.179183959960937500e+00 1.222990703582763672e+01
5.167636871337890625e+00 1.313920855522155762e+00 1.338720417022705078e+01
5.932004928588867188e+00 1.303375840187072754e+00 1.209022045135498047e+01
5.754456043243408203e+00 1.494776129722595215e+00 1.172472572326660156e+01
5.286563873291015625e+00 1.584592342376708984e+00 1.076806831359863281e+01
4.486639499664306641e+00 1.678416371345520020e+00 1.024764919281005859e+01
4.126917362213134766e+00 1.724449276924133301e+00 9.422299385070800781e+00
3.867911338806152344e+00 1.785212635993957520e+00 8.827880859375000000e+00
3.533896923065185547e+00 1.784986972808837891e+00 8.062363624572753906e+00
2.922736406326293945e+00 1.784701347351074219e+00 7.545213222503662109e+00
2.730093955993652344e+00 1.798332929611206055e+00 7.044383525848388672e+00
2.557816505432128906e+00 1.807312369346618652e+00 6.596240997314453125e+00
6.168136596679687500e+00 -4.524459838867187500e-01 1.585009765625000000e+01
1.612906265258789062e+01 -7.786616086959838867e-01 3.263780212402343750e+01
1.371277809143066406e+01 -6.125965714454650879e-01 4.035542678833007812e+01
1.340299129486083984e+01 -3.274728655815124512e-01 3.442759704589843750e+01
8.608519554138183594e+00 -6.960848718881607056e-02 1.741430473327636719e+01
1.159095573425292969e+01 1.184884160757064819e-01 3.409545135498046875e+01
1.266373157501220703e+01 2.681535780429840088e-01 2.872089958190917969e+01
8.605407714843750000e+00 2.747049629688262939e-01 1.740266036987304688e+01
1.066802215576171875e+01 6.960055232048034668e-01 3.136615753173828125e+01
1.169690704345703125e+01 7.612188458442687988e-01 2.651895332336425781e+01
1.163623905181884766e+01 7.617412805557250977e-01 2.114348602294921875e+01
8.855077743530273438e+00 9.364207386970520020e-01 2.272148704528808594e+01
8.819992065429687500e+00 9.609765410423278809e-01 1.998952674865722656e+01
9.024541854858398438e+00 9.220446944236755371e-01 1.639344978332519531e+01
6.373224258422851562e+00 9.842742681503295898e-01 1.634589958190917969e+01
7.090154170989990234e+00 1.083277225494384766e+00 1.606345748901367188e+01
7.483622550964355469e+00 1.038355588912963867e+00 1.359116268157958984e+01
5.456305980682373047e+00 1.108965277671813965e+00 1.398864078521728516e+01
6.431589603424072266e+00 1.146412611007690430e+00 1.299192619323730469e+01
6.732033252716064453e+00 1.180536270141601562e+00 1.222284984588623047e+01
5.205785274505615234e+00 1.310786724090576172e+00 1.334039115905761719e+01
5.969187736511230469e+00 1.301494479179382324e+00 1.205417442321777344e+01
5.792072296142578125e+00 1.493081808090209961e+00 1.169292736053466797e+01
5.319806098937988281e+00 1.582456111907958984e+00 1.073624134063720703e+01
4.517740726470947266e+00 1.675745368003845215e+00 1.021672630310058594e+01
4.149425506591796875e+00 1.719216704368591309e+00 9.380115509033203125e+00
3.900210857391357422e+00 1.784956455230712891e+00 8.813710212707519531e+00
3.579262495040893555e+00 1.792701244354248047e+00 8.085269927978515625e+00
2.950341224670410156e+00 1.784476280212402344e+00 7.534515380859375000e+00
2.758702993392944336e+00 1.799975156784057617e+00 7.041641712188720703e+00
2.585481405258178711e+00 1.809590458869934082e+00 6.595908641815185547e+00
8.679635047912597656e+00 -4.168016910552978516e-01 1.742552566528320312e+01
1.368170070648193359e+01 -6.066582202911376953e-01 3.985251235961914062e+01
1.344891166687011719e+01 -3.268414139747619629e-01 3.422709655761718750e+01
8.651588439941406250e+00 -6.993448734283447266e-02 1.736390113830566406e+01
1.157781505584716797e+01 1.163861751556396484e-01 3.370894241333007812e+01
1.271163463592529297e+01 2.665542662143707275e-01 2.858595848083496094e+01
8.689467430114746094e+00 2.752179205417633057e-01 1.743461227416992188e+01
1.152350807189941406e+01 7.440629005432128906e-01 3.353556823730468750e+01
1.167938613891601562e+01 7.540548443794250488e-01 2.625558662414550781e+01
1.162892436981201172e+01 7.564558982849121094e-01 2.097398185729980469e+01
8.902987480163574219e+00 9.333862066268920898e-01 2.263407135009765625e+01
8.853487014770507812e+00 9.573180675506591797e-01 1.989603233337402344e+01
9.035292625427246094e+00 9.175300598144531250e-01 1.629167556762695312e+01
6.528362274169921875e+00 9.997581243515014648e-01 1.658968544006347656e+01
7.119460105895996094e+00 1.079677343368530273e+00 1.599372291564941406e+01
7.513682365417480469e+00 1.036302924156188965e+00 1.354493236541748047e+01
5.506052970886230469e+00 1.109786152839660645e+00 1.398631286621093750e+01
6.465234279632568359e+00 1.144838571548461914e+00 1.295742130279541016e+01
6.794554233551025391e+00 1.184465050697326660e+00 1.224524211883544922e+01
5.220644474029541016e+00 1.303702592849731445e+00 1.325544643402099609e+01
5.994561195373535156e+00 1.298508048057556152e+00 1.201046562194824219e+01
5.818992137908935547e+00 1.490299701690673828e+00 1.165516471862792969e+01
5.346397876739501953e+00 1.580102920532226562e+00 1.070533466339111328e+01
4.550595760345458984e+00 1.675788640975952148e+00 1.020434284210205078e+01
4.196528434753417969e+00 1.726256489753723145e+00 9.406717300415039062e+00
3.943082571029663086e+00 1.791656732559204102e+00 8.835591316223144531e+00
