# .PCD v0.7 - Point Cloud Data file format
VERSION 0.7
FIELDS x y z
SIZE 4 4 4
TYPE F F F
COUNT 1 1 1
WIDTH 636
HEIGHT 1
VIEWPOINT 0 0 0 1 0 0 0
POINTS 636
DATA ascii
9.124177932739257812e+00 8.446560502052307129e-01 2.426338768005371094e+01
5.747865200042724609e+00 1.005262374877929688e+00 2.474943733215332031e+01
5.898043155670166016e+00 9.897143840789794922e-01 2.113619232177734375e+01
6.929917335510253906e+00 9.898561835289001465e-01 1.842071723937988281e+01
5.067743301391601562e+00 1.281971335411071777e+00 2.180414199829101562e+01
5.055461406707763672e+00 1.180883288383483887e+00 1.810642814636230469e+01
5.647863388061523438e+00 1.089566707611083984e+00 1.500745391845703125e+01
4.585785388946533203e+00 1.518753886222839355e+00 1.971684265136718750e+01
4.884747028350830078e+00 1.258753776550292969e+00 1.492458629608154297e+01
4.910666465759277344e+00 1.193400144577026367e+00 1.304320907592773438e+01
3.809015035629272461e+00 1.557656288146972656e+00 1.636450386047363281e+01
4.581291198730468750e+00 1.440316438674926758e+00 1.399072933197021484e+01
4.283402442932128906e+00 1.589186787605285645e+00 1.307476329803466797e+01
3.815363645553588867e+00 1.631164908409118652e+00 1.164055252075195312e+01
2.986305475234985352e+00 1.673868894577026367e+00 1.066396522521972656e+01
2.717521905899047852e+00 1.699712872505187988e+00 9.698033332824707031e+00
2.501590728759765625e+00 1.726830124855041504e+00 8.922419548034667969e+00
2.306355237960815430e+00 1.741030216217041016e+00 8.220908164978027344e+00
1.809872388839721680e+00 1.760531067848205566e+00 7.730091571807861328e+00
1.690781712532043457e+00 1.772924065589904785e+00 7.215427398681640625e+00
1.592027783393859863e+00 1.789472103118896484e+00 6.787815093994140625e+00
6.166563987731933594e+00 -6.851033568382263184e-01 2.618290519714355469e+01
6.342625617980957031e+00 -4.112924933433532715e-01 1.919295310974121094e+01
8.613259315490722656e+00 -6.090687513351440430e-01 4.533501052856445312e+01
6.177868843078613281e+00 -2.082311511039733887e-01 2.621303558349609375e+01
1.349564266204833984e+01 -1.093069612979888916e-01 4.081871795654296875e+01
8.636329650878906250e+00 2.063820660114288330e-01 4.541771316528320312e+01
1.112315082550048828e+01 3.937838673591613770e-01 3.934813690185546875e+01
1.039183425903320312e+01 5.026614069938659668e-01 3.141607666015625000e+01
6.259754180908203125e+00 7.426958680152893066e-01 3.289139175415039062e+01
8.233775138854980469e+00 8.274502754211425781e-01 2.911064910888671875e+01
9.191003799438476562e+00 8.419106006622314453e-01 2.417189407348632812e+01
5.820147037506103516e+00 1.001302480697631836e+00 2.465044212341308594e+01
5.935190200805664062e+00 9.823835492134094238e-01 2.097220802307128906e+01
6.944103240966796875e+00 9.817730188369750977e-01 1.825520896911621094e+01
5.061279773712158203e+00 1.259781122207641602e+00 2.142014312744140625e+01
5.082068443298339844e+00 1.171163201332092285e+00 1.794762039184570312e+01
5.698551177978515625e+00 1.088303327560424805e+00 1.497550201416015625e+01
4.628621101379394531e+00 1.508544683456420898e+00 1.957574272155761719e+01
4.903022766113281250e+00 1.249029278755187988e+00 1.479686832427978516e+01
4.955581188201904297e+00 1.192326545715332031e+00 1.301771736145019531e+01
3.866188764572143555e+00 1.556020498275756836e+00 1.633886146545410156e+01
4.584283351898193359e+00 1.424895048141479492e+00 1.382841491699218750e+01
4.325638294219970703e+00 1.586719512939453125e+00 1.304206180572509766e+01
3.863593578338623047e+00 1.633181929588317871e+00 1.164348506927490234e+01
3.022100448608398438e+00 1.671739339828491211e+00 1.064159393310546875e+01
2.751402139663696289e+00 1.698408722877502441e+00 9.682378768920898438e+00
2.529945135116577148e+00 1.723618030548095703e+00 8.898124694824218750e+00
2.332687377929687500e+00 1.737974286079406738e+00 8.199269294738769531e+00
1.834094047546386719e+00 1.756385207176208496e+00 7.706374168395996094e+00
1.714031577110290527e+00 1.769434094429016113e+00 7.196001052856445312e+00
1.613721013069152832e+00 1.785773038864135742e+00 6.768808841705322266e+00
6.377912521362304688e+00 -6.999986767768859863e-01 2.670399665832519531e+01
6.345420360565185547e+00 -4.423356652259826660e-01 3.283557128906250000e+01
9.189449310302734375e+00 -3.067305088043212891e-01 3.844992828369140625e+01
1.349895095825195312e+01 -1.093708872795104980e-01 4.040242385864257812e+01
6.348377704620361328e+00 1.483135074377059937e-01 3.282338333129882812e+01
1.156463909149169922e+01 4.038233757019042969e-01 4.042437744140625000e+01
1.048222541809082031e+01 5.014394521713256836e-01 3.135863685607910156e+01
6.327319145202636719e+00 7.376019358634948730e-01 3.268706130981445312e+01
8.307017326354980469e+00 8.248614072799682617e-01 2.902123832702636719e+01
9.226766586303710938e+00 8.376485109329223633e-01 2.403842163085937500e+01
5.894285202026367188e+00 1.000068426132202148e+00 2.461846542358398438e+01
5.323858737945556641e+00 8.710263967514038086e-01 1.858904266357421875e+01
7.224805831909179688e+00 1.012616395950317383e+00 1.881513214111328125e+01
5.037801265716552734e+00 1.236913561820983887e+00 2.102552986145019531e+01
5.108715534210205078e+00 1.163913726806640625e+00 1.782798385620117188e+01
5.725518703460693359e+00 1.084125518798828125e+00 1.490540599822998047e+01
4.666357994079589844e+00 1.500378370285034180e+00 1.946224212646484375e+01
4.912749767303466797e+00 1.239377260208129883e+00 1.467178535461425781e+01
4.973561286926269531e+00 1.186535477638244629e+00 1.294259929656982422e+01
3.912829637527465820e+00 1.553723812103271484e+00 1.630731773376464844e+01
4.589113235473632812e+00 1.412658214569091797e+00 1.369885730743408203e+01
4.364040851593017578e+00 1.585458636283874512e+00 1.302092361450195312e+01
3.896347999572753906e+00 1.631292104721069336e+00 1.162006282806396484e+01
3.056038618087768555e+00 1.671751022338867188e+00 1.063400173187255859e+01
2.780691862106323242e+00 1.697481989860534668e+00 9.669949531555175781e+00
2.561667203903198242e+00 1.725942015647888184e+00 8.903413772583007812e+00
2.358409404754638672e+00 1.737753033638000488e+00 8.191954612731933594e+00
1.861018180847167969e+00 1.758769631385803223e+00 7.712017536163330078e+00
1.735691189765930176e+00 1.768304944038391113e+00 7.186854362487792969e+00
1.639503836631774902e+00 1.790557146072387695e+00 6.782591342926025391e+00
6.458766937255859375e+00 -4.429397881031036377e-01 3.277676391601562500e+01
6.526543617248535156e+00 -2.154237776994705200e-01 2.687194633483886719e+01
1.361041450500488281e+01 -1.103143244981765747e-01 4.024468612670898438e+01
5.878883838653564453e+00 1.338094174861907959e-01 2.980953216552734375e+01
5.492560386657714844e+00 1.887728869915008545e-01 1.893662261962890625e+01
1.060668849945068359e+01 5.009315609931945801e-01 3.134844207763671875e+01
5.891448020935058594e+00 6.730511188507080078e-01 2.984869194030761719e+01
5.535321235656738281e+00 5.420960783958435059e-01 1.907364082336425781e+01
9.289482116699218750e+00 8.346561193466186523e-01 2.393924903869628906e+01
5.883352756500244141e+00 9.823938012123107910e-01 2.418118667602539062e+01
5.822601318359375000e+00 9.399658441543579102e-01 2.005261421203613281e+01
7.285024166107177734e+00 1.010850548744201660e+00 1.876621818542480469e+01
5.034030914306640625e+00 1.216713547706604004e+00 2.067521858215332031e+01
5.128894805908203125e+00 1.153211116790771484e+00 1.765391921997070312e+01
5.759865760803222656e+00 1.079888224601745605e+00 1.483227825164794922e+01
4.723939895629882812e+00 1.495417714118957520e+00 1.938886833190917969e+01
4.961989879608154297e+00 1.237810015678405762e+00 1.464050960540771484e+01
4.986306190490722656e+00 1.177966237068176270e+00 1.283516788482666016e+01
3.977733373641967773e+00 1.555227875709533691e+00 1.631420707702636719e+01
4.584295749664306641e+00 1.395504474639892578e+00 1.351988029479980469e+01
4.403409481048583984e+00 1.582078218460083008e+00 1.298043918609619141e+01
3.943342924118041992e+00 1.632782578468322754e+00 1.161890506744384766e+01
3.092752218246459961e+00 1.670221924781799316e+00 1.061519527435302734e+01
2.815534353256225586e+00 1.696845650672912598e+00 9.657860755920410156e+00
2.590950012207031250e+00 1.723464846611022949e+00 8.882700920104980469e+00
2.388389348983764648e+00 1.737495660781860352e+00 8.183318138122558594e+00
1.888777017593383789e+00 1.758088827133178711e+00 7.703311920166015625e+00
1.758282780647277832e+00 1.764352560043334961e+00 7.165395736694335938e+00
1.659701943397521973e+00 1.785368561744689941e+00 6.757788181304931641e+00
5.975226879119873047e+00 -9.417733550071716309e-01 2.977169990539550781e+01
5.980241775512695312e+00 -4.036157727241516113e-01 2.977264976501464844e+01
9.461941719055175781e+00 -3.089060187339782715e-01 3.834462738037109375e+01
6.485774040222167969e+00 -5.258564651012420654e-02 1.894868659973144531e+01
5.982180595397949219e+00 1.326984167098999023e-01 2.975837898254394531e+01
5.841739654541015625e+00 1.976457536220550537e-01 1.986804389953613281e+01
1.072733211517333984e+01 5.002439022064208984e-01 3.132640266418457031e+01
5.990932464599609375e+00 6.709658503532409668e-01 2.977791786193847656e+01
5.845547199249267578e+00 5.647186040878295898e-01 1.987030601501464844e+01
9.365464210510253906e+00 8.329036831855773926e-01 2.387530136108398438e+01
5.935954570770263672e+00 9.757049083709716797e-01 2.401399421691894531e+01
5.853727817535400391e+00 9.325956106185913086e-01 1.988742256164550781e+01
7.321630954742431641e+00 1.005880236625671387e+00 1.865761184692382812e+01
5.035912990570068359e+00 1.198476672172546387e+00 2.035817337036132812e+01
5.174370288848876953e+00 1.148401975631713867e+00 1.756994438171386719e+01
5.789378643035888672e+00 1.074843525886535645e+00 1.474795532226562500e+01
4.791110992431640625e+00 1.493599653244018555e+00 1.935599136352539062e+01
4.990366935729980469e+00 1.231138467788696289e+00 1.454872608184814453e+01
5.001972675323486328e+00 1.170255780220031738e+00 1.273709201812744141e+01
4.029811859130859375e+00 1.551753759384155273e+00 1.626864814758300781e+01
4.578228473663330078e+00 1.378362178802490234e+00 1.334112167358398438e+01
4.449637413024902344e+00 1.581222534179687500e+00 1.296051216125488281e+01
3.978789567947387695e+00 1.629525780677795410e+00 1.158380794525146484e+01
3.132729291915893555e+00 1.670486211776733398e+00 1.060764312744140625e+01
2.850325584411621094e+00 1.696210145950317383e+00 9.645647048950195312e+00
2.624575376510620117e+00 1.723918676376342773e+00 8.876979827880859375e+00
2.418337345123291016e+00 1.737239122390747070e+00 8.174572944641113281e+00
1.914137363433837891e+00 1.755244970321655273e+00 7.685033321380615234e+00
1.792031407356262207e+00 1.771564126014709473e+00 7.189165592193603516e+00
1.687712073326110840e+00 1.788630604743957520e+00 6.764882087707519531e+00
6.467661380767822266e+00 -6.824479699134826660e-01 2.587726211547851562e+01
6.856912612915039062e+00 -4.566046595573425293e-01 3.359023666381835938e+01
1.662937545776367188e+01 -5.379104614257812500e-01 6.649195861816406250e+01
1.285915851593017578e+01 -1.042873114347457886e-01 3.718731307983398438e+01
5.900130271911621094e+00 1.969790458679199219e-01 1.983617973327636719e+01
1.081456661224365234e+01 4.989108443260192871e-01 3.126043701171875000e+01
6.673215866088867188e+00 7.349752187728881836e-01 3.263868331909179688e+01
5.906220436096191406e+00 5.640217065811157227e-01 1.984611320495605469e+01
9.406561851501464844e+00 8.293107151985168457e-01 2.376029014587402344e+01
5.997750759124755859e+00 9.728389382362365723e-01 2.394098091125488281e+01
5.904757022857666016e+00 9.302650690078735352e-01 1.983066749572753906e+01
7.377249717712402344e+00 1.005003690719604492e+00 1.862712287902832031e+01
5.034760475158691406e+00 1.182633757591247559e+00 2.008275794982910156e+01
5.231233119964599609e+00 1.148305773735046387e+00 1.755937767028808594e+01
5.711454868316650391e+00 1.051597714424133301e+00 1.441621208190917969e+01
4.842651844024658203e+00 1.490230321884155273e+00 1.930413627624511719e+01
4.985766410827636719e+00 1.218473911285400391e+00 1.438796806335449219e+01
5.013309478759765625e+00 1.163286566734313965e+00 1.264910316467285156e+01
4.077967643737792969e+00 1.550200700759887695e+00 1.624436759948730469e+01
4.562067985534667969e+00 1.360705137252807617e+00 1.315933227539062500e+01
4.485099792480468750e+00 1.579049587249755859e+00 1.293150234222412109e+01
4.012537002563476562e+00 1.628167748451232910e+00 1.156381034851074219e+01
3.163183450698852539e+00 1.668708562850952148e+00 1.058832645416259766e+01
2.881718873977661133e+00 1.696616411209106445e+00 9.640476226806640625e+00
2.651298046112060547e+00 1.722948193550109863e+00 8.864976882934570312e+00
2.441172361373901367e+00 1.735023260116577148e+00 8.157601356506347656e+00
1.936812043190002441e+00 1.753735780715942383e+00 7.673357009887695312e+00
1.815058827400207520e+00 1.771831870079040527e+00 7.185441970825195312e+00
1.706081628799438477e+00 1.785463213920593262e+00 6.748332977294921875e+00
1.437443923950195312e+01 -8.918857574462890625e-01 4.109966659545898438e+01
1.677646255493164062e+01 -5.369510650634765625e-01 6.605062103271484375e+01
1.101507949829101562e+01 -8.935666084289550781e-02 3.148040580749511719e+01
7.043587684631347656e+00 1.490667760372161865e-01 3.384450531005859375e+01
5.989525794982910156e+00 1.969091594219207764e-01 1.986996078491210938e+01
1.104534244537353516e+01 5.032562017440795898e-01 3.155280303955078125e+01
6.740186214447021484e+00 7.282238006591796875e-01 3.236151504516601562e+01
5.986989021301269531e+00 5.641628503799438477e-01 1.985115051269531250e+01
9.474999427795410156e+00 8.269849419593811035e-01 2.367928886413574219e+01
5.437967300415039062e+00 8.686470985412597656e-01 2.137398147583007812e+01
5.979113101959228516e+00 9.299144744873046875e-01 1.981466674804687500e+01
7.435801982879638672e+00 1.003148794174194336e+00 1.857589149475097656e+01
5.077765941619873047e+00 1.174923181533813477e+00 1.994424247741699219e+01
5.226881980895996094e+00 1.132876873016357422e+00 1.731273269653320312e+01
5.409672260284423828e+00 9.865116477012634277e-01 1.350975990295410156e+01
4.871000289916992188e+00 1.476774692535400391e+00 1.912010002136230469e+01
4.954668998718261719e+00 1.197782635688781738e+00 1.413071250915527344e+01
5.046277523040771484e+00 1.159845471382141113e+00 1.259739017486572266e+01
4.138434886932373047e+00 1.550049185752868652e+00 1.623322868347167969e+01
4.557533264160156250e+00 1.344751000404357910e+00 1.299230861663818359e+01
4.509410858154296875e+00 1.570634961128234863e+00 1.284941864013671875e+01
4.053551673889160156e+00 1.627287983894348145e+00 1.154534530639648438e+01
3.199076890945434570e+00 1.666884899139404297e+00 1.056725788116455078e+01
2.911287069320678711e+00 1.692990422248840332e+00 9.611037254333496094e+00
2.679750680923461914e+00 1.720108866691589355e+00 8.842089653015136719e+00
2.472731828689575195e+00 1.735966205596923828e+00 8.154289245605468750e+00
1.965863466262817383e+00 1.754355549812316895e+00 7.670053005218505859e+00
1.840386390686035156e+00 1.770671963691711426e+00 7.175036430358886719e+00
1.729328989982604980e+00 1.783756852149963379e+00 6.736470222473144531e+00
1.437823486328125000e+01 -8.841125965118408203e-01 4.063196563720703125e+01
6.817893028259277344e+00 -4.403893947601318359e-01 3.219301605224609375e+01
6.627076148986816406e+00 -2.099138498306274414e-01 2.569636535644531250e+01
1.110368347167968750e+01 -9.009778499603271484e-02 3.136440658569335938e+01
5.698400497436523438e+00 1.176320239901542664e-01 2.688651275634765625e+01
1.228526687622070312e+01 3.977802991867065430e-01 4.022175216674804688e+01
6.630978107452392578e+00 2.984271645545959473e-01 1.872216796875000000e+01
6.782810688018798828e+00 7.191165089607238770e-01 3.197867202758789062e+01
6.077806949615478516e+00 5.652279853820800781e-01 1.988836860656738281e+01
9.530231475830078125e+00 8.235636353492736816e-01 2.356660270690917969e+01
6.052082538604736328e+00 9.522752761840820312e-01 2.342819023132324219e+01
6.066867351531982422e+00 9.316288232803344727e-01 1.984232902526855469e+01
7.482841014862060547e+00 9.997961521148681641e-01 1.849670028686523438e+01
5.088840007781982422e+00 1.160158634185791016e+00 1.968582344055175781e+01
5.279768466949462891e+00 1.130087137222290039e+00 1.725914192199707031e+01
5.441916465759277344e+00 9.830016493797302246e-01 1.344733619689941406e+01
4.856112957000732422e+00 1.450797557830810547e+00 1.877392387390136719e+01
5.021735668182373047e+00 1.201019406318664551e+00 1.415571689605712891e+01
5.082673549652099609e+00 1.157258987426757812e+00 1.255484008789062500e+01
4.192387104034423828e+00 1.547504305839538574e+00 1.619679832458496094e+01
4.561822891235351562e+00 1.331722855567932129e+00 1.285363388061523438e+01
4.499941349029541016e+00 1.550770998001098633e+00 1.267371559143066406e+01
4.093821525573730469e+00 1.626146316528320312e+00 1.152486515045166016e+01
3.241237163543701172e+00 1.668346405029296875e+00 1.056686687469482422e+01
2.952251195907592773e+00 1.696014881134033203e+00 9.619217872619628906e+00
2.717306137084960938e+00 1.723127245903015137e+00 8.849188804626464844e+00
2.503148317337036133e+00 1.736111164093017578e+00 8.147108078002929688e+00
1.993932962417602539e+00 1.754110813140869141e+00 7.662859916687011719e+00
1.865661740303039551e+00 1.769513010978698730e+00 7.164542675018310547e+00
1.753978252410888672e+00 1.783541798591613770e+00 6.730151653289794922e+00
1.429450607299804688e+01 -8.722755908966064453e-01 3.999533081054687500e+01
5.750483036041259766e+00 -3.667629063129425049e-01 2.673816108703613281e+01
1.723980712890625000e+01 -5.413110256195068359e-01 6.598905181884765625e+01
1.275360012054443359e+01 -1.035052686929702759e-01 3.566832351684570312e+01
1.342945194244384766e+01 2.714296281337738037e-01 6.239658737182617188e+01
1.227993679046630859e+01 3.924997448921203613e-01 3.975685501098632812e+01
1.114465236663818359e+01 4.963465332984924316e-01 3.115494918823242188e+01
7.024687290191650391e+00 7.329826354980468750e-01 3.261400604248046875e+01
8.732821464538574219e+00 8.031272888183593750e-01 2.825849533081054688e+01
9.592878341674804688e+00 8.219958543777465820e-01 2.350881195068359375e+01
6.144355773925781250e+00 9.545428156852722168e-01 2.348062515258789062e+01
6.447271347045898438e+00 9.794248938560485840e-01 2.085206222534179688e+01
7.532591819763183594e+00 9.982271194458007812e-01 1.845279121398925781e+01
5.118774890899658203e+00 1.152446150779724121e+00 1.954808425903320312e+01
5.323916435241699219e+00 1.127502679824829102e+00 1.721008872985839844e+01
5.450174331665039062e+00 9.765784740447998047e-01 1.334707355499267578e+01
4.835175991058349609e+00 1.426717162132263184e+00 1.845379066467285156e+01
4.972694396972656250e+00 1.178499341011047363e+00 1.387903308868408203e+01
5.063293457031250000e+00 1.143664360046386719e+00 1.239495563507080078e+01
4.250802516937255859e+00 1.549823999404907227e+00 1.621249389648437500e+01
4.563205242156982422e+00 1.320118784904479980e+00 1.273060035705566406e+01
4.481363773345947266e+00 1.530513882637023926e+00 1.249685573577880859e+01
4.121280193328857422e+00 1.622420310974121094e+00 1.148773860931396484e+01
3.270878314971923828e+00 1.666273951530456543e+00 1.054535102844238281e+01
2.977754831314086914e+00 1.693099498748779297e+00 9.594880104064941406e+00
2.742152690887451172e+00 1.721061468124389648e+00 8.831272125244140625e+00
2.528124332427978516e+00 1.735494732856750488e+00 8.137385368347167969e+00
2.016478538513183594e+00 1.752603888511657715e+00 7.650948524475097656e+00
1.887639164924621582e+00 1.768852472305297852e+00 7.156820297241210938e+00
1.775581717491149902e+00 1.783854722976684570e+00 6.726536273956298828e+00
5.808279514312744141e+00 -8.471105098724365234e-01 2.655296325683593750e+01
1.427511882781982422e+01 -8.634536862373352051e-01 3.948381042480468750e+01
1.452446556091308594e+01 -9.130101203918457031e-01 6.635073089599609375e+01
5.505434989929199219e+00 -1.711359620094299316e-01 2.076177406311035156e+01
1.275566959381103516e+01 -1.035424023866653442e-01 3.526588058471679688e+01
5.633465290069580078e+00 1.111167520284652710e-01 2.571594619750976562e+01
1.016750431060791016e+01 3.201610445976257324e-01 3.249494934082031250e+01
5.175514698028564453e+00 2.277306616306304932e-01 1.430269622802734375e+01
7.106050014495849609e+00 7.280159592628479004e-01 3.241423797607421875e+01
8.805257797241210938e+00 7.994291782379150391e-01 2.812711334228515625e+01
5.513852119445800781e+00 4.678747355937957764e-01 1.337225818634033203e+01
6.232920169830322266e+00 9.541878700256347656e-01 2.346764183044433594e+01
6.486609935760498047e+00 9.732218384742736816e-01 2.071011352539062500e+01
5.510835647583007812e+00 7.234151363372802734e-01 1.335994911193847656e+01
5.168311119079589844e+00 1.146929740905761719e+00 1.944625473022460938e+01
5.379178047180175781e+00 1.125344634056091309e+00 1.716573905944824219e+01
5.482294559478759766e+00 9.732125401496887207e-01 1.328646469116210938e+01
4.822279453277587891e+00 1.402721285820007324e+00 1.813339042663574219e+01
4.981391429901123047e+00 1.168202042579650879e+00 1.374454784393310547e+01
5.128437042236328125e+00 1.147723078727722168e+00 1.242424869537353516e+01
4.297363758087158203e+00 1.544705510139465332e+00 1.614874839782714844e+01
4.573849678039550781e+00 1.309437990188598633e+00 1.261465835571289062e+01
4.472232341766357422e+00 1.511587023735046387e+00 1.232911396026611328e+01
4.157241821289062500e+00 1.619701027870178223e+00 1.145584297180175781e+01
3.306514501571655273e+00 1.664454340934753418e+00 1.052392005920410156e+01
3.015830516815185547e+00 1.694463133811950684e+00 9.593370437622070312e+00
2.773883342742919922e+00 1.720421433448791504e+00 8.819350242614746094e+00
2.557314872741699219e+00 1.734843015670776367e+00 8.126259803771972656e+00
2.047504901885986328e+00 1.754955291748046875e+00 7.654887676239013672e+00
1.920366644859313965e+00 1.774667620658874512e+00 7.174345970153808594e+00
1.803201913833618164e+00 1.786621093750000000e+00 6.731276512145996094e+00
1.424462318420410156e+01 -8.541467785835266113e-01 3.895232009887695312e+01
5.752841949462890625e+00 -3.565123975276947021e-01 2.582663536071777344e+01
1.769239234924316406e+01 -5.445638895034790039e-01 6.574692535400390625e+01
1.279000663757324219e+01 -1.038387864828109741e-01 3.495969009399414062e+01
1.367061614990234375e+01 2.632136344909667969e-01 6.132826614379882812e+01
1.019830989837646484e+01 3.164162039756774902e-01 3.217913818359375000e+01
5.225833415985107422e+00 2.272086143493652344e-01 1.427800559997558594e+01
7.179078102111816406e+00 7.223625779151916504e-01 3.218309020996093750e+01
8.871409416198730469e+00 7.952526211738586426e-01 2.797843170166015625e+01
5.090792179107666016e+00 4.278138279914855957e-01 1.221901607513427734e+01
6.228378772735595703e+00 9.397880434989929199e-01 2.310892486572265625e+01
6.570910930633544922e+00 9.738330841064453125e-01 2.071290016174316406e+01
5.018760681152343750e+00 6.526684761047363281e-01 1.204167366027832031e+01
5.227570056915283203e+00 1.143695354461669922e+00 1.938288307189941406e+01
5.426939010620117188e+00 1.121691942214965820e+00 1.709838485717773438e+01
4.948126792907714844e+00 8.703126311302185059e-01 1.186840820312500000e+01
4.812297821044921875e+00 1.380236625671386719e+00 1.783258819580078125e+01
5.013185977935791016e+00 1.163486838340759277e+00 1.367570114135742188e+01
4.894703865051269531e+00 1.085439324378967285e+00 1.173594284057617188e+01
4.357533931732177734e+00 1.544560670852661133e+00 1.613679122924804688e+01
4.598098754882812500e+00 1.302842617034912109e+00 1.253805351257324219e+01
4.466037750244140625e+00 1.494044065475463867e+00 1.217279911041259766e+01
4.193708896636962891e+00 1.617247343063354492e+00 1.142569828033447266e+01
3.346234798431396484e+00 1.664724826812744141e+00 1.051555919647216797e+01
3.048549413681030273e+00 1.692836761474609375e+00 9.574797630310058594e+00
2.802579402923583984e+00 1.717952966690063477e+00 8.797945976257324219e+00
2.584671974182128906e+00 1.732995152473449707e+00 8.109425544738769531e+00
2.071938037872314453e+00 1.751685380935668945e+00 7.634203910827636719e+00
1.942540526390075684e+00 1.770721793174743652e+00 7.152305603027343750e+00
1.824274301528930664e+00 1.782930970191955566e+00 6.711600303649902344e+00
5.853238105773925781e+00 -8.294874429702758789e-01 2.591219139099121094e+01
5.572524070739746094e+00 -5.463833808898925781e-01 2.046379852294921875e+01
1.420415496826171875e+01 -8.454657793045043945e-01 3.846654510498046875e+01
1.506394577026367188e+01 -9.224128127098083496e-01 6.664038848876953125e+01
1.794038581848144531e+01 -5.476195216178894043e-01 6.584344482421875000e+01
1.284640216827392578e+01 -1.043097451329231262e-01 3.477487945556640625e+01
1.330941486358642578e+01 2.510607838630676270e-01 5.883690643310546875e+01
1.027371501922607422e+01 3.147770762443542480e-01 3.206695938110351562e+01
1.178497695922851562e+01 5.072035789489746094e-01 3.188819694519042969e+01
7.191841125488281250e+00 7.127172350883483887e-01 3.177036666870117188e+01
8.937277793884277344e+00 7.925618290901184082e-01 2.788191223144531250e+01
5.562900543212890625e+00 4.636590480804443359e-01 1.323494148254394531e+01
6.089425563812255859e+00 9.076347351074218750e-01 2.231423187255859375e+01
6.659118175506591797e+00 9.766840934753417969e-01 2.076448249816894531e+01
5.589231491088867188e+00 7.210881114006042480e-01 1.329271697998046875e+01
5.247389793395996094e+00 1.134299755096435547e+00 1.921615409851074219e+01
5.464144229888916016e+00 1.117869734764099121e+00 1.702996826171875000e+01
5.557097911834716797e+00 9.697874784469604492e-01 1.321212005615234375e+01
4.804142475128173828e+00 1.361575722694396973e+00 1.758270645141601562e+01
5.052645683288574219e+00 1.162337183952331543e+00 1.365057373046875000e+01
5.168796062469482422e+00 1.137352108955383301e+00 1.228443527221679688e+01
4.406607627868652344e+00 1.543570280075073242e+00 1.611730575561523438e+01
4.640210628509521484e+00 1.303294897079467773e+00 1.253105545043945312e+01
4.459372043609619141e+00 1.478851556777954102e+00 1.203765296936035156e+01
4.240582466125488281e+00 1.621166229248046875e+00 1.144226264953613281e+01
3.377412557601928711e+00 1.663551092147827148e+00 1.049939918518066406e+01
3.078589439392089844e+00 1.692582726478576660e+00 9.565225601196289062e+00
2.831385374069213867e+00 1.718451261520385742e+00 8.792894363403320312e+00
2.612514495849609375e+00 1.734375953674316406e+00 8.108781814575195312e+00
2.102612018585205078e+00 1.757098793983459473e+00 7.652189731597900391e+00
1.964975118637084961e+00 1.770527601242065430e+00 7.146222591400146484e+00
1.847380995750427246e+00 1.784734964370727539e+00 6.713363170623779297e+00
6.029642105102539062e+00 -8.416990041732788086e-01 2.624511909484863281e+01
1.416737365722656250e+01 -8.361378908157348633e-01 3.793840408325195312e+01
6.028873443603515625e+00 -3.641295731067657471e-01 2.622342872619628906e+01
1.818105697631835938e+01 -5.496882796287536621e-01 6.577530670166015625e+01
5.266918182373046875e+00 -4.277139157056808472e-02 1.409823513031005859e+01
6.045021533966064453e+00 1.113602593541145325e-01 2.627536392211914062e+01
1.039239978790283203e+01 3.138235509395599365e-01 3.203290557861328125e+01
1.047564792633056641e+01 4.455835819244384766e-01 2.802905082702636719e+01
8.095070838928222656e+00 7.883130311965942383e-01 3.516157531738281250e+01
9.002358436584472656e+00 7.884569764137268066e-01 2.773490142822265625e+01
5.639488220214843750e+00 4.655934870243072510e-01 1.328071880340576172e+01
6.362567424774169922e+00 9.350593686103820801e-01 2.298323822021484375e+01
6.712326049804687500e+00 9.727337956428527832e-01 2.066966247558593750e+01
5.641804695129394531e+00 7.211978435516357422e-01 1.328136253356933594e+01
5.327358245849609375e+00 1.135737061500549316e+00 1.923147201538085938e+01
5.483328819274902344e+00 1.108614563941955566e+00 1.687697982788085938e+01
5.621075153350830078e+00 9.720996618270874023e-01 1.322842979431152344e+01
4.797677040100097656e+00 1.341212272644042969e+00 1.730940818786621094e+01
5.069076061248779297e+00 1.154287338256835938e+00 1.354238319396972656e+01
5.209867000579833984e+00 1.136142134666442871e+00 1.225628089904785156e+01
4.443268299102783203e+00 1.535335540771484375e+00 1.602050399780273438e+01
4.670727252960205078e+00 1.298647880554199219e+00 1.247300052642822266e+01
4.457433700561523438e+00 1.463386416435241699e+00 1.189848136901855469e+01
4.276897430419921875e+00 1.618715286254882812e+00 1.141184997558593750e+01
3.414618492126464844e+00 1.662630438804626465e+00 1.048325061798095703e+01
3.114820241928100586e+00 1.692951679229736328e+00 9.557689666748046875e+00
2.863564729690551758e+00 1.718179941177368164e+00 8.782520294189453125e+00
2.641580343246459961e+00 1.733726739883422852e+00 8.097352027893066406e+00
2.125372171401977539e+00 1.752533793449401855e+00 7.625685214996337891e+00
1.989556908607482910e+00 1.768907546997070312e+00 7.133416175842285156e+00
1.868298530578613281e+00 1.781046986579895020e+00 6.693549633026123047e+00
5.646020412445068359e+00 -9.136119484901428223e-01 2.020197296142578125e+01
6.102542400360107422e+00 -8.411135673522949219e-01 2.618513679504394531e+01
1.413624477386474609e+01 -8.283113241195678711e-01 3.749515533447265625e+01
6.103505134582519531e+00 -3.643957674503326416e-01 2.617124176025390625e+01
1.836227226257324219e+01 -5.507106781005859375e-01 6.562731933593750000e+01
1.227253341674804688e+01 -9.967090189456939697e-02 3.253836059570312500e+01
6.108895778656005859e+00 1.102952137589454651e-01 2.617639541625976562e+01
1.053036022186279297e+01 3.140919804573059082e-01 3.211413192749023438e+01
1.058764362335205078e+01 4.458724856376647949e-01 2.805963325500488281e+01
6.129666805267333984e+00 5.881583094596862793e-01 2.624733734130859375e+01
9.066370010375976562e+00 7.857255339622497559e-01 2.763622283935546875e+01
5.688258171081542969e+00 4.658408164978027344e-01 1.327948856353759766e+01
6.415309906005859375e+00 9.316177964210510254e-01 2.289389228820800781e+01
6.809611320495605469e+00 9.768352508544921875e-01 2.074721908569335938e+01
5.691357135772705078e+00 7.218629717826843262e-01 1.328195667266845703e+01
5.357540607452392578e+00 1.128855109214782715e+00 1.910700798034667969e+01
5.498315334320068359e+00 1.100564599037170410e+00 1.674402046203613281e+01
5.664162158966064453e+00 9.720380306243896484e-01 1.321440505981445312e+01
4.781972885131835938e+00 1.321390032768249512e+00 1.704465103149414062e+01
5.085500717163085938e+00 1.148051977157592773e+00 1.345742416381835938e+01
5.198853015899658203e+00 1.125127792358398438e+00 1.212450504302978516e+01
4.491399288177490234e+00 1.534166216850280762e+00 1.599884414672851562e+01
4.688752174377441406e+00 1.292505502700805664e+00 1.240244865417480469e+01
4.463843822479248047e+00 1.453013420104980469e+00 1.180269718170166016e+01
4.301478385925292969e+00 1.614208817481994629e+00 1.136874103546142578e+01
3.449984312057495117e+00 1.663546204566955566e+00 1.048003673553466797e+01
3.141721725463867188e+00 1.691038727760314941e+00 9.538543701171875000e+00
2.891731977462768555e+00 1.718313574790954590e+00 8.775402069091796875e+00
2.665753126144409180e+00 1.732715010643005371e+00 8.085344314575195312e+00
2.149293184280395508e+00 1.752327442169189453e+00 7.619025230407714844e+00
2.011403083801269531e+00 1.768249988555908203e+00 7.125313282012939453e+00
1.891398906707763672e+00 1.782851934432983398e+00 6.695160388946533203e+00
5.651382923126220703e+00 -9.032762646675109863e-01 1.993889236450195312e+01
6.216455459594726562e+00 -8.444006443023681641e-01 2.623842620849609375e+01
5.653970241546630859e+00 -5.356712937355041504e-01 1.993686485290527344e+01
5.319117546081542969e+00 -3.090931475162506104e-01 1.395333385467529297e+01
6.217840194702148438e+00 -3.663281202316284180e-01 2.622651863098144531e+01
1.871023178100585938e+01 -5.559768676757812500e-01 6.593859100341796875e+01
1.238600254058837891e+01 -1.006003245711326599e-01 3.247821044921875000e+01
6.217254638671875000e+00 1.096698492765426636e-01 2.620637321472167969e+01
1.208270931243896484e+01 3.552917838096618652e-01 3.639722442626953125e+01
1.071749210357666016e+01 4.461587071418762207e-01 2.809165573120117188e+01
6.231353759765625000e+00 5.878336429595947266e-01 2.624806404113769531e+01
9.146156311035156250e+00 7.830407023429870605e-01 2.753832626342773438e+01
9.894077301025390625e+00 8.027414083480834961e-01 2.286630630493164062e+01
6.441797733306884766e+00 9.226798415184020996e-01 2.266841506958007812e+01
6.874877929687500000e+00 9.746783971786499023e-01 2.068992614746093750e+01
7.850623607635498047e+00 9.867680668830871582e-01 1.813722419738769531e+01
5.421505928039550781e+00 1.127003669738769531e+00 1.906615829467773438e+01
5.506103038787841797e+00 1.089458942413330078e+00 1.656278991699218750e+01
5.725224971771240234e+00 9.738103151321411133e-01 1.322289085388183594e+01
4.777801990509033203e+00 1.302697539329528809e+00 1.679302406311035156e+01
5.094921588897705078e+00 1.138742208480834961e+00 1.333444595336914062e+01
5.232147216796875000e+00 1.122395515441894531e+00 1.207980823516845703e+01
4.553797245025634766e+00 1.534948468208312988e+00 1.599573898315429688e+01
4.695775508880615234e+00 1.281658530235290527e+00 1.228482151031494141e+01
4.475112438201904297e+00 1.442366957664489746e+00 1.170279788970947266e+01
4.327505111694335938e+00 1.608077049255371094e+00 1.131221961975097656e+01
3.488969326019287109e+00 1.663522005081176758e+00 1.046925926208496094e+01
3.179127693176269531e+00 1.692073583602905273e+00 9.534510612487792969e+00
2.925091505050659180e+00 1.718775033950805664e+00 8.768537521362304688e+00
2.695340394973754883e+00 1.732466578483581543e+00 8.075582504272460938e+00
2.175563335418701172e+00 1.750790596008300781e+00 7.605527877807617188e+00
2.037475585937500000e+00 1.768025517463684082e+00 7.117957592010498047e+00
1.912160873413085938e+00 1.779166102409362793e+00 6.675210475921630859e+00
5.702910423278808594e+00 -9.005053639411926270e-01 1.984312057495117188e+01
5.717615604400634766e+00 -5.354194641113281250e-01 1.988332557678222656e+01
5.354404926300048828e+00 -3.085988759994506836e-01 1.389268684387207031e+01
9.273195266723632812e+00 -5.392638444900512695e-01 3.848486709594726562e+01
5.705661773681640625e+00 -1.680085659027099609e-01 1.983082580566406250e+01
1.233587169647216797e+01 -1.001987084746360779e-01 3.199406814575195312e+01
9.285413742065429688e+00 1.600580364465713501e-01 3.851005172729492188e+01
1.205930423736572266e+01 3.496304154396057129e-01 3.588635635375976562e+01
1.166167163848876953e+01 4.799426794052124023e-01 3.023331642150878906e+01
6.340164184570312500e+00 5.881624817848205566e-01 2.627755355834960938e+01
9.217703819274902344e+00 7.797160148620605469e-01 2.741747665405273438e+01
9.934572219848632812e+00 7.986010313034057617e-01 2.273101234436035156e+01
6.534779071807861328e+00 9.233736395835876465e-01 2.267924880981445312e+01
6.940452098846435547e+00 9.726147055625915527e-01 2.063432502746582031e+01
7.877018451690673828e+00 9.812563061714172363e-01 1.801685523986816406e+01
5.311547756195068359e+00 1.089526295661926270e+00 1.842264938354492188e+01
4.988048553466796875e+00 9.757464528083801270e-01 1.482282638549804688e+01
5.810412406921386719e+00 9.796267151832580566e-01 1.328595447540283203e+01
4.779592037200927734e+00 1.286103963851928711e+00 1.656848335266113281e+01
5.120032310485839844e+00 1.133096814155578613e+00 1.325435256958007812e+01
5.214066028594970703e+00 1.108795642852783203e+00 1.191818904876708984e+01
4.598006248474121094e+00 1.529667735099792480e+00 1.592924785614013672e+01
4.715632915496826172e+00 1.274503588676452637e+00 1.220258808135986328e+01
4.486425876617431641e+00 1.431955218315124512e+00 1.160482883453369141e+01
4.371055126190185547e+00 1.608528375625610352e+00 1.130188846588134766e+01
3.526024818420410156e+00 1.662604570388793945e+00 1.045271301269531250e+01
3.208977222442626953e+00 1.689125180244445801e+00 9.507905960083007812e+00
2.952148199081420898e+00 1.715581417083740234e+00 8.742917060852050781e+00
2.720500707626342773e+00 1.729427456855773926e+00 8.052715301513671875e+00
2.200675487518310547e+00 1.748390913009643555e+00 7.588189601898193359e+00
2.059183359146118164e+00 1.764085888862609863e+00 7.095560550689697266e+00
1.939285993576049805e+00 1.781437873840332031e+00 6.677524566650390625e+00
5.768577098846435547e+00 -9.015631675720214844e-01 1.983659172058105469e+01
5.649909496307373047e+00 -5.238872766494750977e-01 1.941795349121093750e+01
1.405907917022705078e+01 -8.046675324440002441e-01 3.613929367065429688e+01
9.418255805969238281e+00 -5.417172908782958984e-01 3.855460739135742188e+01
5.766255378723144531e+00 -1.684937328100204468e-01 1.980703926086425781e+01
1.238916778564453125e+01 -1.006346121430397034e-01 3.183400535583496094e+01
9.374522209167480469e+00 1.584582328796386719e-01 3.835053253173828125e+01
1.075673294067382812e+01 3.081454634666442871e-01 3.168020629882812500e+01
1.162235927581787109e+01 4.736982882022857666e-01 2.985179710388183594e+01
8.520173072814941406e+00 7.792819142341613770e-01 3.483263778686523438e+01
9.278054237365722656e+00 7.768419981002807617e-01 2.731268882751464844e+01
6.431686401367187500e+00 5.129675865173339844e-01 1.459110546112060547e+01
5.814492225646972656e+00 8.122032284736633301e-01 1.994382286071777344e+01
6.990438461303710938e+00 9.700207710266113281e-01 2.056893920898437500e+01
6.548172950744628906e+00 8.095351457595825195e-01 1.485020542144775391e+01
5.479540824890136719e+00 1.111373424530029297e+00 1.878353309631347656e+01
5.592329978942871094e+00 1.083411812782287598e+00 1.644751930236816406e+01
5.946326732635498047e+00 9.950629472732543945e-01 1.348127841949462891e+01
4.771245956420898438e+00 1.269598126411437988e+00 1.634665489196777344e+01
5.165249824523925781e+00 1.133552432060241699e+00 1.324752616882324219e+01
5.242616176605224609e+00 1.106631040573120117e+00 1.188172912597656250e+01
4.629020214080810547e+00 1.522993206977844238e+00 1.584977531433105469e+01
4.737288951873779297e+00 1.269732117652893066e+00 1.214510059356689453e+01
4.488893032073974609e+00 1.420912981033325195e+00 1.150372695922851562e+01
4.392817497253417969e+00 1.603239893913269043e+00 1.125306034088134766e+01
3.559458732604980469e+00 1.662628173828125000e+00 1.044350910186767578e+01
3.243899345397949219e+00 1.691531062126159668e+00 9.512764930725097656e+00
2.983384609222412109e+00 1.717544913291931152e+00 8.744818687438964844e+00
2.748292922973632812e+00 1.730810880661010742e+00 8.051602363586425781e+00
2.223378896713256836e+00 1.747322678565979004e+00 7.577545166015625000e+00
2.085823774337768555e+00 1.767610311508178711e+00 7.104043483734130859e+00
1.958590507507324219e+00 1.779769420623779297e+00 6.665877342224121094e+00
5.838993549346923828e+00 -9.018363952636718750e-01 1.980761909484863281e+01
5.403917789459228516e+00 -5.688213706016540527e-01 1.374705886840820312e+01
6.437487602233886719e+00 -8.398424386978149414e-01 2.595644187927246094e+01
5.850003242492675781e+00 -5.363189578056335449e-01 1.983432388305664062e+01
1.404435825347900391e+01 -7.973931431770324707e-01 3.571346664428710938e+01
1.651550292968750000e+01 -9.380385875701904297e-01 6.654886627197265625e+01
5.852396488189697266e+00 -1.695084869861602783e-01 1.983180236816406250e+01
1.252259826660156250e+01 -1.017199084162712097e-01 3.183118820190429688e+01
6.717385768890380859e+00 1.109985411167144775e-01 2.705018997192382812e+01
1.073432731628417969e+01 3.032652735710144043e-01 3.123772048950195312e+01
1.161083889007568359e+01 4.679388999938964844e-01 2.950197792053222656e+01
8.573987007141113281e+00 7.715246677398681641e-01 3.450430679321289062e+01
9.349479675292968750e+00 7.736400365829467773e-01 2.719533920288085938e+01
1.001017570495605469e+01 7.911451458930969238e-01 2.248578262329101562e+01
5.867709636688232422e+00 8.088451623916625977e-01 1.985533142089843750e+01
7.219773769378662109e+00 9.905216097831726074e-01 2.099100112915039062e+01
7.954741001129150391e+00 9.748096466064453125e-01 1.786252784729003906e+01
5.514355182647705078e+00 1.103982925415039062e+00 1.864847373962402344e+01
5.658400058746337891e+00 1.084028720855712891e+00 1.644393920898437500e+01
6.104485034942626953e+00 1.012723088264465332e+00 1.370368385314941406e+01
4.779612541198730469e+00 1.255559444427490234e+00 1.615506362915039062e+01
5.144300460815429688e+00 1.118063926696777344e+00 1.305233955383300781e+01
5.268264770507812500e+00 1.102552533149719238e+00 1.182242965698242188e+01
4.665571212768554688e+00 1.515518426895141602e+00 1.576019287109375000e+01
4.761303901672363281e+00 1.263943314552307129e+00 1.207585144042968750e+01
4.504755496978759766e+00 1.412341952323913574e+00 1.142071056365966797e+01
4.429637432098388672e+00 1.601326227188110352e+00 1.122587680816650391e+01
3.591235399246215820e+00 1.659329295158386230e+00 1.041175842285156250e+01
3.268420457839965820e+00 1.685930132865905762e+00 9.471043586730957031e+00
3.008970260620117188e+00 1.713623166084289551e+00 8.715301513671875000e+00
2.776476144790649414e+00 1.729767560958862305e+00 8.037833213806152344e+00
2.249437808990478516e+00 1.745789170265197754e+00 7.563793659210205078e+00
2.106268882751464844e+00 1.762744069099426270e+00 7.077769756317138672e+00
1.983532190322875977e+00 1.780056834220886230e+00 6.660575866699218750e+00
6.037973880767822266e+00 -9.217543601989746094e-01 2.020915031433105469e+01
1.403704833984375000e+01 -7.906750440597534180e-01 3.531424713134765625e+01
6.206424236297607422e+00 -1.782087087631225586e-01 2.075100135803222656e+01
1.265395545959472656e+01 -1.027861982583999634e-01 3.182224464416503906e+01
9.694013595581054688e+00 1.566229313611984253e-01 3.843400192260742188e+01
1.095777320861816406e+01 3.053503036499023438e-01 3.151175117492675781e+01
1.159691524505615234e+01 4.622009396553039551e-01 2.915264701843261719e+01
6.872322559356689453e+00 6.085445880889892578e-01 2.722955894470214844e+01
9.422142028808593750e+00 7.706071734428405762e-01 2.708349990844726562e+01
1.004824447631835938e+01 7.870285511016845703e-01 2.235051918029785156e+01
5.935266971588134766e+00 8.075217008590698242e-01 1.981649208068847656e+01
5.086632728576660156e+00 6.900656223297119141e-01 1.461472034454345703e+01
7.989005088806152344e+00 9.705114960670471191e-01 1.776406097412109375e+01
5.563729763031005859e+00 1.099660515785217285e+00 1.856505966186523438e+01
5.689073085784912109e+00 1.077930212020874023e+00 1.633830070495605469e+01
6.175937175750732422e+00 1.015828251838684082e+00 1.372856998443603516e+01
4.819864749908447266e+00 1.250150799751281738e+00 1.607443809509277344e+01
5.189133167266845703e+00 1.117040753364562988e+00 1.302603054046630859e+01
5.230579376220703125e+00 1.085410475730895996e+00 1.162317371368408203e+01
4.659178256988525391e+00 1.494465112686157227e+00 1.552939605712890625e+01
4.781190395355224609e+00 1.257190108299255371e+00 1.199734306335449219e+01
4.525221824645996094e+00 1.405375480651855469e+00 1.135065078735351562e+01
4.469256401062011719e+00 1.600466728210449219e+00 1.120594215393066406e+01
3.631950139999389648e+00 1.660203337669372559e+00 1.040605449676513672e+01
3.303082942962646484e+00 1.685641288757324219e+00 9.459061622619628906e+00
3.045403718948364258e+00 1.715915083885192871e+00 8.717270851135253906e+00
2.798128128051757812e+00 1.724739074707031250e+00 8.005464553833007812e+00
2.274861574172973633e+00 1.743824839591979980e+00 7.548082351684570312e+00
2.134975433349609375e+00 1.764844417572021484e+00 7.079378604888916016e+00
2.009021282196044922e+00 1.780840992927551270e+00 6.657035827636718750e+00
1.400350570678710938e+01 -7.834929227828979492e-01 3.490991973876953125e+01
1.690475845336914062e+01 -9.384786486625671387e-01 6.618683624267578125e+01
1.325834655761718750e+01 -3.779143095016479492e-01 4.382690048217773438e+01
1.279110336303710938e+01 -1.038979142904281616e-01 3.187513732910156250e+01
9.849859237670898438e+00 1.561262309551239014e-01 3.854094314575195312e+01
6.585507869720458984e+00 1.813801825046539307e-01 1.874818611145019531e+01
1.156699466705322266e+01 4.566654264926910400e-01 2.881358528137207031e+01
5.413178443908691406e+00 4.728664159774780273e-01 2.116769218444824219e+01
9.491257667541503906e+00 7.686116695404052734e-01 2.700852203369140625e+01
1.007795143127441406e+01 7.833325266838073730e-01 2.222965812683105469e+01
5.998636245727539062e+00 8.071470856666564941e-01 1.980159759521484375e+01
7.292205333709716797e+00 9.798944592475891113e-01 2.074164009094238281e+01
8.026606559753417969e+00 9.678837060928344727e-01 1.769888687133789062e+01
5.529331207275390625e+00 1.081044316291809082e+00 1.824177360534667969e+01
5.709226608276367188e+00 1.071660399436950684e+00 1.623187828063964844e+01
6.314645767211914062e+00 1.031103491783142090e+00 1.391993045806884766e+01
4.855270385742187500e+00 1.245858788490295410e+00 1.600963211059570312e+01
5.218857765197753906e+00 1.114327788352966309e+00 1.298195171356201172e+01
5.322226047515869141e+00 1.096490144729614258e+00 1.172830295562744141e+01
4.646619796752929688e+00 1.474596142768859863e+00 1.531272029876708984e+01
4.787643432617187500e+00 1.248748660087585449e+00 1.190473651885986328e+01
4.524498462677001953e+00 1.393892049789428711e+00 1.124610042572021484e+01
4.496272563934326172e+00 1.597289323806762695e+00 1.117166423797607422e+01
3.661311626434326172e+00 1.658442497253417969e+00 1.038531970977783203e+01
3.326853752136230469e+00 1.682408452033996582e+00 9.431951522827148438e+00
3.070132255554199219e+00 1.714226365089416504e+00 8.700297355651855469e+00
2.828459501266479492e+00 1.727718710899353027e+00 8.011472702026367188e+00
2.298538446426391602e+00 1.743622899055480957e+00 7.540952682495117188e+00
2.152639627456665039e+00 1.760941028594970703e+00 7.057806015014648438e+00
2.031030654907226562e+00 1.781655311584472656e+00 6.654452800750732422e+00
1.398713207244873047e+01 -7.765188813209533691e-01 3.450254440307617188e+01
1.708247756958007812e+01 -9.370404481887817383e-01 6.587468719482421875e+01
1.351969718933105469e+01 -3.821303248405456543e-01 4.410688781738281250e+01
1.296646881103515625e+01 -1.053176522254943848e-01 3.197260665893554688e+01
1.116462516784667969e+01 3.033702373504638672e-01 3.141572952270507812e+01
1.155071926116943359e+01 4.510565698146820068e-01 2.847081565856933594e+01
8.835791587829589844e+00 7.598606348037719727e-01 3.403145217895507812e+01
5.137661457061767578e+00 4.113221466541290283e-01 1.445033645629882812e+01
1.013188552856445312e+01 7.805776596069335938e-01 2.213261985778808594e+01
6.096957683563232422e+00 8.099574446678161621e-01 1.986357116699218750e+01
7.342043399810791016e+00 9.757932424545288086e-01 2.064139175415039062e+01
8.075601577758789062e+00 9.654853343963623047e-01 1.763487625122070312e+01
5.526957511901855469e+00 1.067119717597961426e+00 1.799618530273437500e+01
5.741892337799072266e+00 1.066196441650390625e+00 1.613565826416015625e+01
6.200230598449707031e+00 1.003926396369934082e+00 1.353570652008056641e+01
4.883430480957031250e+00 1.237639307975769043e+00 1.589263820648193359e+01
5.252125740051269531e+00 1.110927939414978027e+00 1.292768478393554688e+01
5.315349102020263672e+00 1.085976719856262207e+00 1.160005760192871094e+01
4.629526138305664062e+00 1.451186180114746094e+00 1.505768680572509766e+01
4.811735630035400391e+00 1.243360996246337891e+00 1.183920860290527344e+01
4.554437160491943359e+00 1.390133261680603027e+00 1.120188331604003906e+01
4.521473884582519531e+00 1.591437578201293945e+00 1.111660194396972656e+01
3.697329521179199219e+00 1.657233595848083496e+00 1.036630249023437500e+01
3.364023923873901367e+00 1.683448791503906250e+00 9.427186965942382812e+00
3.100648403167724609e+00 1.713231444358825684e+00 8.685344696044921875e+00
2.856456279754638672e+00 1.726678490638732910e+00 7.997423648834228516e+00
2.329013586044311523e+00 1.745547294616699219e+00 7.541870117187500000e+00
2.182484149932861328e+00 1.763970494270324707e+00 7.062943458557128906e+00
2.052515029907226562e+00 1.778967618942260742e+00 6.637773513793945312e+00
1.396979045867919922e+01 -7.704616189002990723e-01 3.415119552612304688e+01
