# .PCD v0.7 - Point Cloud Data file format
VERSION 0.7
FIELDS x y z
SIZE 4 4 4
TYPE F F F
COUNT 1 1 1
WIDTH 636
HEIGHT 1
VIEWPOINT 0 0 0 1 0 0 0
POINTS 636
DATA ascii
1.078752899169921875e+01 7.994890809059143066e-01 1.851349258422851562e+01
1.028703308105468750e+01 8.168772459030151367e-01 1.599621582031250000e+01
1.009882354736328125e+01 7.974072694778442383e-01 1.303426170349121094e+01
8.561748504638671875e+00 9.353374242782592773e-01 1.468925952911376953e+01
8.402286529541015625e+00 9.421700835227966309e-01 1.306244468688964844e+01
8.473615646362304688e+00 9.131960272789001465e-01 1.093500804901123047e+01
7.254694461822509766e+00 1.048099517822265625e+00 1.244356250762939453e+01
6.517944335937500000e+00 8.816194534301757812e-01 9.215575218200683594e+00
7.724803447723388672e+00 1.055269479751586914e+00 9.966821670532226562e+00
6.304675579071044922e+00 1.131847023963928223e+00 1.081084346771240234e+01
6.513510704040527344e+00 1.080224514007568359e+00 9.207398414611816406e+00
6.516288757324218750e+00 1.279793739318847656e+00 9.209420204162597656e+00
6.186030387878417969e+00 1.403697133064270020e+00 8.740861892700195312e+00
5.534328937530517578e+00 1.522525787353515625e+00 8.593292236328125000e+00
5.138981819152832031e+00 1.580521345138549805e+00 7.977293491363525391e+00
4.828292369842529297e+00 1.641404390335083008e+00 7.493295192718505859e+00
4.510772705078125000e+00 1.679230213165283203e+00 6.998653888702392578e+00
4.008400917053222656e+00 1.742698669433593750e+00 6.857488155364990234e+00
3.821349620819091797e+00 1.793157815933227539e+00 6.535309314727783203e+00
1.560233688354492188e+01 -8.547292947769165039e-01 2.660925865173339844e+01
1.504140663146972656e+01 -5.807578563690185547e-01 2.115042304992675781e+01
1.447323131561279297e+01 -4.807054996490478516e-01 2.734866333007812500e+01
1.361633014678955078e+01 -2.683517634868621826e-01 2.321625709533691406e+01
1.336501026153564453e+01 -1.053985431790351868e-01 1.878927040100097656e+01
1.292676544189453125e+01 5.879735201597213745e-02 2.441950607299804688e+01
1.278273582458496094e+01 1.763196587562561035e-01 1.974951362609863281e+01
1.251603984832763672e+01 2.841693758964538574e-01 1.759211349487304688e+01
1.071693134307861328e+01 4.544876813888549805e-01 2.023921012878417969e+01
1.155981159210205078e+01 5.363515019416809082e-01 1.785598945617675781e+01
1.090033245086669922e+01 5.431178212165832520e-01 1.398046684265136719e+01
1.085472774505615234e+01 7.997360825538635254e-01 1.849505043029785156e+01
1.031332874298095703e+01 8.146370649337768555e-01 1.592694759368896484e+01
1.009671306610107422e+01 7.937630414962768555e-01 1.294736099243164062e+01
8.583575248718261719e+00 9.323655962944030762e-01 1.462098979949951172e+01
8.426988601684570312e+00 9.400658607482910156e-01 1.301088142395019531e+01
8.487048149108886719e+00 9.107356071472167969e-01 1.088161087036132812e+01
7.270503520965576172e+00 1.044477224349975586e+00 1.238118076324462891e+01
6.552633285522460938e+00 8.822027444839477539e-01 9.203203201293945312e+00
7.743802547454833984e+00 1.053400039672851562e+00 9.926822662353515625e+00
6.322448253631591797e+00 1.128718018531799316e+00 1.076354026794433594e+01
6.537768363952636719e+00 1.079266905784606934e+00 9.180438041687011719e+00
6.547475814819335938e+00 1.280049562454223633e+00 9.192180633544921875e+00
6.207685470581054688e+00 1.402212619781494141e+00 8.713354110717773438e+00
5.553741455078125000e+00 1.520274043083190918e+00 8.564293861389160156e+00
5.160773754119873047e+00 1.579359769821166992e+00 7.956194400787353516e+00
4.842151165008544922e+00 1.637979745864868164e+00 7.463290691375732422e+00
4.527377128601074219e+00 1.677099108695983887e+00 6.976277351379394531e+00
4.023952484130859375e+00 1.739970445632934570e+00 6.834815979003906250e+00
3.840848684310913086e+00 1.792547464370727539e+00 6.521651268005371094e+00
1.563769817352294922e+01 -8.520559072494506836e-01 2.644689178466796875e+01
1.494760704040527344e+01 -5.746958851814270020e-01 2.085622978210449219e+01
1.451027107238769531e+01 -4.793742597103118896e-01 2.717722511291503906e+01
1.354963588714599609e+01 -2.659922540187835693e-01 2.290970420837402344e+01
1.337435913085937500e+01 -1.053931415081024170e-01 1.865726089477539062e+01
1.292572498321533203e+01 5.772072076797485352e-02 2.420260620117187500e+01
1.278945827484130859e+01 1.749160885810852051e-01 1.960204124450683594e+01
1.250235176086425781e+01 2.819751501083374023e-01 1.743724441528320312e+01
1.079574012756347656e+01 4.541283249855041504e-01 2.020863342285156250e+01
1.166013431549072266e+01 5.375052094459533691e-01 1.786709976196289062e+01
1.087986183166503906e+01 5.392386317253112793e-01 1.384926700592041016e+01
1.096517944335937500e+01 8.023720383644104004e-01 1.852741050720214844e+01
1.032465267181396484e+01 8.105413913726806641e-01 1.581712341308593750e+01
1.013914775848388672e+01 7.930721044540405273e-01 1.290401649475097656e+01
8.607584953308105469e+00 9.287928938865661621e-01 1.453963184356689453e+01
8.441859245300292969e+00 9.361014962196350098e-01 1.292979526519775391e+01
8.512060165405273438e+00 9.088994860649108887e-01 1.083163738250732422e+01
7.290404796600341797e+00 1.040521144866943359e+00 1.231158065795898438e+01
6.582816600799560547e+00 8.815091252326965332e-01 9.174297332763671875e+00
7.766567230224609375e+00 1.051332473754882812e+00 9.881176948547363281e+00
6.344579219818115234e+00 1.125370383262634277e+00 1.071120262145996094e+01
6.570192337036132812e+00 1.078850269317626953e+00 9.154837608337402344e+00
6.579941749572753906e+00 1.279597759246826172e+00 9.166554450988769531e+00
6.226833820343017578e+00 1.399139404296875000e+00 8.672875404357910156e+00
5.574244499206542969e+00 1.517108440399169922e+00 8.527378082275390625e+00
5.186634063720703125e+00 1.578170299530029297e+00 7.932330131530761719e+00
4.866215229034423828e+00 1.636702179908752441e+00 7.440615177154541016e+00
4.550741195678710938e+00 1.676129579544067383e+00 6.956417083740234375e+00
4.051939487457275391e+00 1.741074323654174805e+00 6.825124263763427734e+00
3.874633312225341797e+00 1.796983003616333008e+00 6.524329185485839844e+00
1.570484256744384766e+01 -8.511492013931274414e-01 2.633957290649414062e+01
1.492795372009277344e+01 -5.715324282646179199e-01 2.066836929321289062e+01
1.451115989685058594e+01 -4.768798947334289551e-01 2.694074249267578125e+01
1.353004932403564453e+01 -2.645774483680725098e-01 2.268640136718750000e+01
1.336886501312255859e+01 -1.052701324224472046e-01 1.850597953796386719e+01
1.294888210296630859e+01 5.676878243684768677e-02 2.403358459472656250e+01
1.278647994995117188e+01 1.734012663364410400e-01 1.944141960144042969e+01
1.254040336608886719e+01 2.809698283672332764e-01 1.735565376281738281e+01
8.332063674926757812e+00 3.476813435554504395e-01 1.546027755737304688e+01
1.179695320129394531e+01 5.403195023536682129e-01 1.793283843994140625e+01
1.078041362762451172e+01 5.315123200416564941e-01 1.361965656280517578e+01
1.095003223419189453e+01 7.958503961563110352e-01 1.834811592102050781e+01
1.034409809112548828e+01 8.071373105049133301e-01 1.572078418731689453e+01
1.013179969787597656e+01 7.885234355926513672e-01 1.279788303375244141e+01
8.649539947509765625e+00 9.271999001502990723e-01 1.448915958404541016e+01
8.484785079956054688e+00 9.352869391441345215e-01 1.289213275909423828e+01
8.529387474060058594e+00 9.062761664390563965e-01 1.077223777770996094e+01
7.330348014831542969e+00 1.039469122886657715e+00 1.227625274658203125e+01
6.612877845764160156e+00 8.808171749114990234e-01 9.145294189453125000e+00
7.789102077484130859e+00 1.049267292022705078e+00 9.835498809814453125e+00
6.374582290649414062e+00 1.123466134071350098e+00 1.067252731323242188e+01
6.608350276947021484e+00 1.079388022422790527e+00 9.137187957763671875e+00
6.615801334381103516e+00 1.279823541641235352e+00 9.145644187927246094e+00
6.257393360137939453e+00 1.398666858673095703e+00 8.648439407348632812e+00
5.579312801361083984e+00 1.509821653366088867e+00 8.467301368713378906e+00
5.193932533264160156e+00 1.571398138999938965e+00 7.880380153656005859e+00
4.884765148162841797e+00 1.633615612983703613e+00 7.409651756286621094e+00
4.577258110046386719e+00 1.676347136497497559e+00 6.941389560699462891e+00
4.068871021270751953e+00 1.737465500831604004e+00 6.796882152557373047e+00
3.899490356445312500e+00 1.797270774841308594e+00 6.511819362640380859e+00
1.562387084960937500e+01 -8.429182767868041992e-01 2.601756477355957031e+01
1.495989227294921875e+01 -5.707100033760070801e-01 2.057607269287109375e+01
1.446600246429443359e+01 -4.732688665390014648e-01 2.665597343444824219e+01
1.356315135955810547e+01 -2.643498480319976807e-01 2.258034515380859375e+01
1.335988903045654297e+01 -1.051306724548339844e-01 1.837169075012207031e+01
8.372775077819824219e+00 3.613124787807464600e-02 1.542393684387207031e+01
1.275694274902343750e+01 1.717571616172790527e-01 1.926442527770996094e+01
1.257603740692138672e+01 2.801865339279174805e-01 1.729030609130859375e+01
8.362456321716308594e+00 3.465668261051177979e-01 1.540064907073974609e+01
1.179360294342041016e+01 5.372117757797241211e-01 1.780569648742675781e+01
1.061262893676757812e+01 5.209070444107055664e-01 1.332149887084960938e+01
1.100142860412597656e+01 7.949875593185424805e-01 1.830337333679199219e+01
1.035700416564941406e+01 8.039667606353759766e-01 1.563326454162597656e+01
1.013459587097167969e+01 7.853730916976928711e-01 1.271914482116699219e+01
8.681623458862304688e+00 9.254451394081115723e-01 1.443969535827636719e+01
8.488840103149414062e+00 9.310140609741210938e-01 1.281052684783935547e+01
8.538297653198242188e+00 9.034285545349121094e-01 1.071420478820800781e+01
7.344189643859863281e+00 1.035711288452148438e+00 1.221217060089111328e+01
6.642735004425048828e+00 8.807809948921203613e-01 9.126114845275878906e+00
7.813735008239746094e+00 1.048237204551696777e+00 9.803220748901367188e+00
6.383419036865234375e+00 1.118904471397399902e+00 1.061152076721191406e+01
6.639350414276123047e+00 1.079577445983886719e+00 9.119635581970214844e+00
6.638633251190185547e+00 1.278505444526672363e+00 9.116823196411132812e+00
6.270502090454101562e+00 1.395368099212646484e+00 8.609548568725585938e+00
5.600396156311035156e+00 1.508164167404174805e+00 8.441536903381347656e+00
5.215368270874023438e+00 1.570240736007690430e+00 7.859141826629638672e+00
4.905820369720458984e+00 1.632729649543762207e+00 7.391043186187744141e+00
4.593596458435058594e+00 1.674219489097595215e+00 6.918861389160156250e+00
4.089169979095458984e+00 1.736882925033569336e+00 6.782446861267089844e+00
3.903820991516113281e+00 1.789750218391418457e+00 6.472928047180175781e+00
1.556380462646484375e+01 -8.352692723274230957e-01 2.570357704162597656e+01
1.492176628112792969e+01 -5.669016838073730469e-01 2.036624526977539062e+01
8.449503898620605469e+00 -2.750035822391510010e-01 1.543437194824218750e+01
1.365825366973876953e+01 -2.651875615119934082e-01 2.255100250244140625e+01
1.335738372802734375e+01 -1.050301641225814819e-01 1.822742080688476562e+01
8.429246902465820312e+00 3.570964187383651733e-02 1.539314746856689453e+01
1.277194309234619141e+01 1.705261915922164917e-01 1.913437843322753906e+01
1.259439182281494141e+01 2.787705957889556885e-01 1.718281555175781250e+01
8.436127662658691406e+00 3.468568325042724609e-01 1.540147876739501953e+01
1.182990741729736328e+01 5.354526638984680176e-01 1.771914100646972656e+01
1.059129714965820312e+01 5.171753168106079102e-01 1.319523048400878906e+01
1.105806446075439453e+01 7.937607765197753906e-01 1.824586677551269531e+01
1.038647651672363281e+01 8.014287948608398438e-01 1.555368804931640625e+01
1.014736461639404297e+01 7.824733853340148926e-01 1.263988494873046875e+01
8.722047805786132812e+00 9.237481951713562012e-01 1.438732147216796875e+01
8.519085884094238281e+00 9.288749694824218750e-01 1.275446224212646484e+01
8.553754806518554688e+00 9.006795287132263184e-01 1.065330505371093750e+01
7.385778427124023438e+00 1.034954071044921875e+00 1.218009281158447266e+01
6.665510177612304688e+00 8.791586756706237793e-01 9.087269783020019531e+00
7.840858936309814453e+00 1.046842932701110840e+00 9.763677597045898438e+00
6.427414894104003906e+00 1.119524002075195312e+00 1.059661006927490234e+01
6.732772827148437500e+00 1.089070558547973633e+00 9.177147865295410156e+00
6.709602355957031250e+00 1.285491108894348145e+00 9.143748283386230469e+00
6.289084434509277344e+00 1.392300963401794434e+00 8.568974494934082031e+00
5.620275974273681641e+00 1.505005002021789551e+00 8.404566764831542969e+00
5.239724159240722656e+00 1.568727612495422363e+00 7.833472251892089844e+00
4.924099445343017578e+00 1.629646182060241699e+00 7.359993934631347656e+00
4.605812072753906250e+00 1.669301271438598633e+00 6.882487297058105469e+00
4.105854034423828125e+00 1.733276963233947754e+00 6.754122734069824219e+00
3.907265663146972656e+00 1.780364394187927246e+00 6.425384044647216797e+00
1.553394508361816406e+01 -8.293274641036987305e-01 2.544327926635742188e+01
1.458539390563964844e+01 -5.518488883972167969e-01 1.975483703613281250e+01
8.479917526245117188e+00 -2.745791673660278320e-01 1.535602569580078125e+01
1.362824535369873047e+01 -2.636038959026336670e-01 2.231644821166992188e+01
1.335994243621826172e+01 -1.049688532948493958e-01 1.809146308898925781e+01
8.507846832275390625e+00 3.538255393505096436e-02 1.540241909027099609e+01
1.276494979858398438e+01 1.690213978290557861e-01 1.897295188903808594e+01
1.259668159484863281e+01 2.770206630229949951e-01 1.705451393127441406e+01
8.506050109863281250e+00 3.469893038272857666e-01 1.539497280120849609e+01
1.184229564666748047e+01 5.326440334320068359e-01 1.759772109985351562e+01
1.058804035186767578e+01 5.143657922744750977e-01 1.309261417388916016e+01
1.113631153106689453e+01 7.940979003906250000e-01 1.822400474548339844e+01
1.040434646606445312e+01 7.980394959449768066e-01 1.545752906799316406e+01
1.015592098236083984e+01 7.792885899543762207e-01 1.255604171752929688e+01
8.733044624328613281e+00 9.189855456352233887e-01 1.428713703155517578e+01
8.545691490173339844e+00 9.263764023780822754e-01 1.269337940216064453e+01
8.545031547546386719e+00 8.954347372055053711e-01 1.056295871734619141e+01
7.398096084594726562e+00 1.030142068862915039e+00 1.210022163391113281e+01
7.770177364349365234e+00 1.019518375396728516e+00 1.051234912872314453e+01
7.857769012451171875e+00 1.044118046760559082e+00 9.711672782897949219e+00
6.444365978240966797e+00 1.115467667579650879e+00 1.053733634948730469e+01
7.210174560546875000e+00 1.160269618034362793e+00 9.752794265747070312e+00
6.740684986114501953e+00 1.284818887710571289e+00 9.115946769714355469e+00
6.301558494567871094e+00 1.387937426567077637e+00 8.520406723022460938e+00
5.645487785339355469e+00 1.503320097923278809e+00 8.375764846801757812e+00
5.273887157440185547e+00 1.570170998573303223e+00 7.822452068328857422e+00
4.945516109466552734e+00 1.627650260925292969e+00 7.333802700042724609e+00
4.629882335662841797e+00 1.668731927871704102e+00 6.863995552062988281e+00
4.127490043640136719e+00 1.731814265251159668e+00 6.734095096588134766e+00
3.930759906768798828e+00 1.780195474624633789e+00 6.411085128784179688e+00
8.643128395080566406e+00 -5.939049124717712402e-01 1.554023361206054688e+01
1.560543060302734375e+01 -8.294549584388732910e-01 2.538070297241210938e+01
1.453527355194091797e+01 -5.480319261550903320e-01 1.955805015563964844e+01
8.536867141723632812e+00 -2.752191722393035889e-01 1.534503078460693359e+01
1.363123512268066406e+01 -2.628133893013000488e-01 2.216449356079101562e+01
1.333915805816650391e+01 -1.047353893518447876e-01 1.794506835937500000e+01
8.543546676635742188e+00 3.497183322906494141e-02 1.535289764404296875e+01
1.276279640197753906e+01 1.677994877099990845e-01 1.884169387817382812e+01
1.260842895507812500e+01 2.757534086704254150e-01 1.695869636535644531e+01
8.531996726989746094e+00 3.457241654396057129e-01 1.532800102233886719e+01
1.186386871337890625e+01 5.307579040527343750e-01 1.751079368591308594e+01
1.055339527130126953e+01 5.104444622993469238e-01 1.296627902984619141e+01
1.107198619842529297e+01 7.850720882415771484e-01 1.799150848388671875e+01
1.041136741638183594e+01 7.945396900177001953e-01 1.536359119415283203e+01
1.017764759063720703e+01 7.776909470558166504e-01 1.250241088867187500e+01
8.756933212280273438e+00 9.164729118347167969e-01 1.422564888000488281e+01
8.557508468627929688e+00 9.230811595916748047e-01 1.262518787384033203e+01
8.549179077148437500e+00 8.922013044357299805e-01 1.050049591064453125e+01
7.417231559753417969e+00 1.027262449264526367e+00 1.204637908935546875e+01
7.786485195159912109e+00 1.017123699188232422e+00 1.046552276611328125e+01
7.881931781768798828e+00 1.043093085289001465e+00 9.679244041442871094e+00
6.455485343933105469e+00 1.111453771591186523e+00 1.048145961761474609e+01
7.226498603820800781e+00 1.157782077789306641e+00 9.710966110229492188e+00
6.756219387054443359e+00 1.282152891159057617e+00 9.077231407165527344e+00
6.314064025878906250e+00 1.384644508361816406e+00 8.481523513793945312e+00
5.657311439514160156e+00 1.499311804771423340e+00 8.336754798889160156e+00
5.278470516204833984e+00 1.564092040061950684e+00 7.776512622833251953e+00
4.960773944854736328e+00 1.624958038330078125e+00 7.306889057159423828e+00
4.642587661743164062e+00 1.665422439575195312e+00 6.836493492126464844e+00
4.139365673065185547e+00 1.727808117866516113e+00 6.706187248229980469e+00
3.940631628036499023e+00 1.775444746017456055e+00 6.382200241088867188e+00
1.486402606964111328e+01 -9.980008602142333984e-01 1.985187911987304688e+01
8.663848876953125000e+00 -5.918545126914978027e-01 1.544392871856689453e+01
1.559407520294189453e+01 -8.246049880981445312e-01 2.515509033203125000e+01
1.450978183746337891e+01 -5.448581576347351074e-01 1.937499237060546875e+01
8.595011711120605469e+00 -2.756980955600738525e-01 1.531711864471435547e+01
1.349527645111083984e+01 -2.592233717441558838e-01 2.176424598693847656e+01
1.334249019622802734e+01 -1.046791300177574158e-01 1.781281852722167969e+01
8.597799301147460938e+00 3.454766422510147095e-02 1.531799602508544922e+01
1.275395393371582031e+01 1.663104146718978882e-01 1.868083190917968750e+01
1.096542644500732422e+01 2.382912784814834595e-01 1.463648605346679688e+01
8.580278396606445312e+00 3.449936807155609131e-01 1.528269100189208984e+01
1.187609100341796875e+01 5.280110836029052734e-01 1.739126014709472656e+01
1.054886531829833984e+01 5.076453685760498047e-01 1.286415290832519531e+01
1.114626693725585938e+01 7.851951122283935547e-01 1.796442413330078125e+01
1.044279670715332031e+01 7.922717928886413574e-01 1.528905868530273438e+01
1.018411540985107422e+01 7.744172215461730957e-01 1.241717243194580078e+01
8.780563354492187500e+00 9.131436944007873535e-01 1.414767932891845703e+01
8.575554847717285156e+00 9.197438359260559082e-01 1.255256271362304688e+01
8.596450805664062500e+00 8.928800821304321289e-01 1.047992515563964844e+01
7.431857109069824219e+00 1.022892832756042480e+00 1.197169876098632812e+01
7.821185111999511719e+00 1.016404867172241211e+00 1.043216609954833984e+01
7.888260841369628906e+00 1.039040923118591309e+00 9.614891052246093750e+00
6.498041629791259766e+00 1.111898660659790039e+00 1.046453857421875000e+01
7.257244110107421875e+00 1.156786561012268066e+00 9.678086280822753906e+00
6.791806221008300781e+00 1.282384276390075684e+00 9.055634498596191406e+00
6.348654747009277344e+00 1.385219097137451172e+00 8.463134765625000000e+00
5.683336257934570312e+00 1.497924685478210449e+00 8.309487342834472656e+00
5.304683208465576172e+00 1.563239932060241699e+00 7.753914833068847656e+00
4.979718208312988281e+00 1.622241258621215820e+00 7.277354240417480469e+00
4.674229621887207031e+00 1.667621135711669922e+00 6.829200267791748047e+00
4.163887977600097656e+00 1.727632761001586914e+00 6.691033840179443359e+00
1.473208618164062500e+01 -9.848002195358276367e-01 1.952603721618652344e+01
8.707605361938476562e+00 -5.914030075073242188e-01 1.538943481445312500e+01
1.547213840484619141e+01 -8.140008449554443359e-01 2.475527954101562500e+01
1.450241470336914062e+01 -5.423958301544189453e-01 1.921792030334472656e+01
8.657004356384277344e+00 -2.763009071350097656e-01 1.529594707489013672e+01
1.342335605621337891e+01 -2.568901479244232178e-01 2.147213363647460938e+01
1.334985160827636719e+01 -1.046538203954696655e-01 1.768717193603515625e+01
8.671615600585937500e+00 3.420343995094299316e-02 1.531771183013916016e+01
1.274750518798828125e+01 1.648738831281661987e-01 1.852522850036621094e+01
1.096236133575439453e+01 2.367167174816131592e-01 1.452119159698486328e+01
8.661845207214355469e+00 3.456026613712310791e-01 1.529639530181884766e+01
1.188419723510742188e+01 5.251203775405883789e-01 1.726693725585937500e+01
1.053736400604248047e+01 5.045464634895324707e-01 1.275453186035156250e+01
1.120565986633300781e+01 7.842812538146972656e-01 1.791331481933593750e+01
1.044322967529296875e+01 7.877005934715270996e-01 1.517006301879882812e+01
1.017991638183593750e+01 7.703773379325866699e-01 1.231973266601562500e+01
8.801621437072753906e+00 9.095999002456665039e-01 1.406634330749511719e+01
8.602240562438964844e+00 9.173762798309326172e-01 1.249312973022460938e+01
8.569951057434082031e+00 8.859375715255737305e-01 1.036992645263671875e+01
7.462966918945312500e+00 1.020843386650085449e+00 1.192412757873535156e+01
7.842522621154785156e+00 1.013978838920593262e+00 1.038119316101074219e+01
7.925969123840332031e+00 1.039153695106506348e+00 9.589026451110839844e+00
6.529990196228027344e+00 1.110547304153442383e+00 1.043056297302246094e+01
7.291447162628173828e+00 1.156363725662231445e+00 9.649876594543457031e+00
6.803361415863037109e+00 1.278115153312683105e+00 9.002190589904785156e+00
6.361670017242431641e+00 1.381121635437011719e+00 8.416130065917968750e+00
5.702500820159912109e+00 1.494773268699645996e+00 8.272369384765625000e+00
5.320721149444580078e+00 1.559435009956359863e+00 7.716611385345458984e+00
4.990695953369140625e+00 1.616993308067321777e+00 7.236444473266601562e+00
4.675821781158447266e+00 1.659154176712036133e+00 6.778192996978759766e+00
4.181087493896484375e+00 1.724460840225219727e+00 6.664206504821777344e+00
1.470997238159179688e+01 -9.796473979949951172e-01 1.936981964111328125e+01
8.819262504577636719e+00 -5.960401892662048340e-01 1.547312927246093750e+01
1.506104564666748047e+01 -7.889484763145446777e-01 2.392990303039550781e+01
1.452401924133300781e+01 -5.413478612899780273e-01 1.912129974365234375e+01
8.725815773010253906e+00 -2.773155570030212402e-01 1.530515003204345703e+01
1.342255783081054688e+01 -2.560682892799377441e-01 2.132153320312500000e+01
1.109208011627197266e+01 -8.689487725496292114e-02 1.460024166107177734e+01
8.747433662414550781e+00 3.395701199769973755e-02 1.533904170989990234e+01
1.274185657501220703e+01 1.636574715375900269e-01 1.839303207397460938e+01
1.097646236419677734e+01 2.357429862022399902e-01 1.444529056549072266e+01
1.192357063293457031e+01 5.240994691848754883e-01 1.720816993713378906e+01
1.052497100830078125e+01 5.017987489700317383e-01 1.265835857391357422e+01
1.125973606109619141e+01 7.837334275245666504e-01 1.787466621398925781e+01
1.046009159088134766e+01 7.850688695907592773e-01 1.509286403656005859e+01
1.017512798309326172e+01 7.668634057044982910e-01 1.223549365997314453e+01
8.826591491699218750e+00 9.073164463043212891e-01 1.400823974609375000e+01
8.611860275268554688e+00 9.139701724052429199e-01 1.242341518402099609e+01
8.624166488647460938e+00 8.879685997962951660e-01 1.036906433105468750e+01
7.487612247467041016e+00 1.018840789794921875e+00 1.188040542602539062e+01
7.866633415222167969e+00 1.012678265571594238e+00 1.034542655944824219e+01
7.933096408843994141e+00 1.035970211029052734e+00 9.536532402038574219e+00
6.569083690643310547e+00 1.111393094062805176e+00 1.042014217376708984e+01
7.293989181518554688e+00 1.151788473129272461e+00 9.590511322021484375e+00
6.824371337890625000e+00 1.276579976081848145e+00 8.971322059631347656e+00
6.382054805755615234e+00 1.379651188850402832e+00 8.388257026672363281e+00
5.723927974700927734e+00 1.493419051170349121e+00 8.247960090637207031e+00
5.334789752960205078e+00 1.556315779685974121e+00 7.685320854187011719e+00
5.003285884857177734e+00 1.613582253456115723e+00 7.206238746643066406e+00
4.706015110015869141e+00 1.662168979644775391e+00 6.776404857635498047e+00
4.200934886932373047e+00 1.723884105682373047e+00 6.649441719055175781e+00
1.468615341186523438e+01 -9.738284349441528320e-01 1.919195556640625000e+01
1.503512096405029297e+01 -7.836516499519348145e-01 2.369557762145996094e+01
1.454661464691162109e+01 -5.400446653366088867e-01 1.900599670410156250e+01
8.794813156127929688e+00 -2.781370580196380615e-01 1.529559421539306641e+01
1.355741119384765625e+01 -2.577010989189147949e-01 2.136168098449707031e+01
1.113214397430419922e+01 -8.713857829570770264e-02 1.454202175140380859e+01
8.835499763488769531e+00 3.366605937480926514e-02 1.536235904693603516e+01
1.273590564727783203e+01 1.622653156518936157e-01 1.824126815795898438e+01
1.102081584930419922e+01 2.352167367935180664e-01 1.439385890960693359e+01
1.069818115234375000e+01 4.208590388298034668e-01 1.859617042541503906e+01
1.193618202209472656e+01 5.214699506759643555e-01 1.709224891662597656e+01
1.051737117767333984e+01 4.989534318447113037e-01 1.255535507202148438e+01
1.145587444305419922e+01 7.923103570938110352e-01 1.803914070129394531e+01
1.048214149475097656e+01 7.822164297103881836e-01 1.500694942474365234e+01
1.020064544677734375e+01 7.651420831680297852e-01 1.217517852783203125e+01
8.832884788513183594e+00 9.023587107658386230e-01 1.390503120422363281e+01
8.635596275329589844e+00 9.113679528236389160e-01 1.236070823669433594e+01
8.639024734497070312e+00 8.853685855865478516e-01 1.030988693237304688e+01
7.500064373016357422e+00 1.014337062835693359e+00 1.180409431457519531e+01
7.888714313507080078e+00 1.010412096977233887e+00 1.029598617553710938e+01
7.960296630859375000e+00 1.034755229949951172e+00 9.498266220092773438e+00
6.612553119659423828e+00 1.112021327018737793e+00 1.040444278717041016e+01
7.319382667541503906e+00 1.150037407875061035e+00 9.551115036010742188e+00
6.843885898590087891e+00 1.273890614509582520e+00 8.928947448730468750e+00
6.399460792541503906e+00 1.376596212387084961e+00 8.347547531127929688e+00
5.746156692504882812e+00 1.491153955459594727e+00 8.215633392333984375e+00
5.359502315521240234e+00 1.555139899253845215e+00 7.660923957824707031e+00
5.021743774414062500e+00 1.610870480537414551e+00 7.176630020141601562e+00
4.712805271148681641e+00 1.655680775642395020e+00 6.733471870422363281e+00
4.214754581451416016e+00 1.719430446624755859e+00 6.617584705352783203e+00
1.471102046966552734e+01 -9.718834161758422852e-01 1.909978103637695312e+01
1.507289791107177734e+01 -7.822777628898620605e-01 2.359092712402343750e+01
1.469777488708496094e+01 -5.438182353973388672e-01 1.907898712158203125e+01
8.878904342651367188e+00 -2.796250879764556885e-01 1.533017826080322266e+01
1.420815944671630859e+01 -2.692356705665588379e-01 2.223233413696289062e+01
1.104960155487060547e+01 -8.643238991498947144e-02 1.434062957763671875e+01
1.288494396209716797e+01 4.831693321466445923e-02 2.224121093750000000e+01
1.273794174194335938e+01 1.611781418323516846e-01 1.812263679504394531e+01
1.107330036163330078e+01 2.350788712501525879e-01 1.436867809295654297e+01
1.074851894378662109e+01 4.201179742813110352e-01 1.854864501953125000e+01
1.197945976257324219e+01 5.206560492515563965e-01 1.703996276855468750e+01
1.049361610412597656e+01 4.957273304462432861e-01 1.244737815856933594e+01
1.146186828613281250e+01 7.884292602539062500e-01 1.792395019531250000e+01
1.050163745880126953e+01 7.798483371734619141e-01 1.493474102020263672e+01
1.021307754516601562e+01 7.629820108413696289e-01 1.211255264282226562e+01
8.872205734252929688e+00 9.016130566596984863e-01 1.387051296234130859e+01
8.662886619567871094e+00 9.098983407020568848e-01 1.231721782684326172e+01
8.655919075012207031e+00 8.835928440093994141e-01 1.026441669464111328e+01
7.526344299316406250e+00 1.012629032135009766e+00 1.176370334625244141e+01
7.918570518493652344e+00 1.009891867637634277e+00 1.026802730560302734e+01
7.964381217956542969e+00 1.031243443489074707e+00 9.442773818969726562e+00
6.647336959838867188e+00 1.112149834632873535e+00 1.038700771331787109e+01
7.342039585113525391e+00 1.148701429367065430e+00 9.518651008605957031e+00
6.843964576721191406e+00 1.268533825874328613e+00 8.871253013610839844e+00
6.417152404785156250e+00 1.374609589576721191e+00 8.316454887390136719e+00
5.754834175109863281e+00 1.486566066741943359e+00 8.173324584960937500e+00
5.369888782501220703e+00 1.551039457321166992e+00 7.624741554260253906e+00
5.028382778167724609e+00 1.605653643608093262e+00 7.138355731964111328e+00
4.730524063110351562e+00 1.654352784156799316e+00 6.713876724243164062e+00
4.237607955932617188e+00 1.720139980316162109e+00 6.607653617858886719e+00
1.477358627319335938e+01 -9.718523621559143066e-01 1.903623008728027344e+01
1.510189247131347656e+01 -7.799232006072998047e-01 2.344641876220703125e+01
1.469772338867187500e+01 -5.416945815086364746e-01 1.893494224548339844e+01
8.921922683715820312e+00 -2.796242535114288330e-01 1.527507686614990234e+01
1.341330814361572266e+01 -2.532643079757690430e-01 2.082001113891601562e+01
1.110208606719970703e+01 -8.677208423614501953e-02 1.430003356933593750e+01
8.873267173767089844e+00 3.265754878520965576e-02 1.518789482116699219e+01
1.272219371795654297e+01 1.596989184617996216e-01 1.795996475219726562e+01
1.083887386322021484e+01 2.286831140518188477e-01 1.395839500427246094e+01
1.084164237976074219e+01 4.206003844738006592e-01 1.855230331420898438e+01
1.192507934570312500e+01 5.151904821395874023e-01 1.683119010925292969e+01
1.047962856292724609e+01 4.926484823226928711e-01 1.233876419067382812e+01
1.146574401855468750e+01 7.837477922439575195e-01 1.778610229492187500e+01
1.050660991668701172e+01 7.758100628852844238e-01 1.482607841491699219e+01
1.022893524169921875e+01 7.605934739112854004e-01 1.204157257080078125e+01
8.890500068664550781e+00 8.979762196540832520e-01 1.378758525848388672e+01
8.667550086975097656e+00 9.053727388381958008e-01 1.222841548919677734e+01
8.680544853210449219e+00 8.820486664772033691e-01 1.021744632720947266e+01
7.540199279785156250e+00 1.008421540260314941e+00 1.169081592559814453e+01
7.939004421234130859e+00 1.007475137710571289e+00 1.021693038940429688e+01
7.996337890625000000e+00 1.030698060989379883e+00 9.410520553588867188e+00
6.684263706207275391e+00 1.111702442169189453e+00 1.036094188690185547e+01
7.356087207794189453e+00 1.145242452621459961e+00 9.464996337890625000e+00
6.862994670867919922e+00 1.265849351882934570e+00 8.828898429870605469e+00
6.428092479705810547e+00 1.370261192321777344e+00 8.267880439758300781e+00
5.764120578765869141e+00 1.481068968772888184e+00 8.123191833496093750e+00
5.397773265838623047e+00 1.550850629806518555e+00 7.605065345764160156e+00
5.054484844207763672e+00 1.605476975440979004e+00 7.119936943054199219e+00
4.745991230010986328e+00 1.651027560234069824e+00 6.683764934539794922e+00
4.257525920867919922e+00 1.718257665634155273e+00 6.585577964782714844e+00
1.475956153869628906e+01 -9.668183326721191406e-01 1.887487792968750000e+01
1.513438701629638672e+01 -7.777844071388244629e-01 2.330872154235839844e+01
1.467218017578125000e+01 -5.386591553688049316e-01 1.875965309143066406e+01
1.472931575775146484e+01 -4.594280123710632324e-01 2.500689506530761719e+01
1.342090320587158203e+01 -2.525084614753723145e-01 2.066503715515136719e+01
1.111622238159179688e+01 -8.681116998195648193e-02 1.421041202545166016e+01
8.901458740234375000e+00 3.215344995260238647e-02 1.510874843597412109e+01
1.273680019378662109e+01 1.586188971996307373e-01 1.784160423278808594e+01
1.087393379211425781e+01 2.280178517103195190e-01 1.389811038970947266e+01
1.192782211303710938e+01 4.593169689178466797e-01 2.024035644531250000e+01
1.186352252960205078e+01 5.094860792160034180e-01 1.661491203308105469e+01
1.048188304901123047e+01 4.903653264045715332e-01 1.225016689300537109e+01
1.146005344390869141e+01 7.784820795059204102e-01 1.763505935668945312e+01
1.054809093475341797e+01 7.745062708854675293e-01 1.476961326599121094e+01
1.022622585296630859e+01 7.568625807762145996e-01 1.194939136505126953e+01
8.957283973693847656e+00 8.992608189582824707e-01 1.378005886077880859e+01
8.700690269470214844e+00 9.038655161857604980e-01 1.218035316467285156e+01
8.699750900268554688e+00 8.799818754196166992e-01 1.016436862945556641e+01
7.565582275390625000e+00 1.005808234214782715e+00 1.163638114929199219e+01
7.955483436584472656e+00 1.004595398902893066e+00 1.016111183166503906e+01
8.019090652465820312e+00 1.028990268707275391e+00 9.367562294006347656e+00
6.733033180236816406e+00 1.113231778144836426e+00 1.035311412811279297e+01
7.383343696594238281e+00 1.143878340721130371e+00 9.428609848022460938e+00
6.870779037475585938e+00 1.261142730712890625e+00 8.772440910339355469e+00
6.454659938812255859e+00 1.369288086891174316e+00 8.239632606506347656e+00
5.783473014831542969e+00 1.478221535682678223e+00 8.087583541870117188e+00
5.414106369018554688e+00 1.547382712364196777e+00 7.569241046905517578e+00
5.074797630310058594e+00 1.603493213653564453e+00 7.093424320220947266e+00
4.760159969329833984e+00 1.647309064865112305e+00 6.652036190032958984e+00
4.272006511688232422e+00 1.714236378669738770e+00 6.555261135101318359e+00
1.470250606536865234e+01 -9.590334892272949219e-01 1.866051292419433594e+01
1.526132869720458984e+01 -7.805095911026000977e-01 2.331663703918457031e+01
1.464555072784423828e+01 -5.356149673461914062e-01 1.858481216430664062e+01
1.462582206726074219e+01 -4.540379643440246582e-01 2.462433624267578125e+01
1.340892028808593750e+01 -2.513950765132904053e-01 2.048184585571289062e+01
1.115089702606201172e+01 -8.700986206531524658e-02 1.414758300781250000e+01
1.314300060272216797e+01 4.659181833267211914e-02 2.212227821350097656e+01
1.271917533874511719e+01 1.571554541587829590e-01 1.767954444885253906e+01
1.086041355133056641e+01 2.263495028018951416e-01 1.377650451660156250e+01
1.201723861694335938e+01 4.593645036220550537e-01 2.022230911254882812e+01
1.186476993560791016e+01 5.065348744392395020e-01 1.648857307434082031e+01
1.046143817901611328e+01 4.870534539222717285e-01 1.213597869873046875e+01
1.145559883117675781e+01 7.733722329139709473e-01 1.748763847351074219e+01
1.054961109161376953e+01 7.703077197074890137e-01 1.465790271759033203e+01
1.023732948303222656e+01 7.541933655738830566e-01 1.187403488159179688e+01
8.956270217895507812e+00 8.937742710113525391e-01 1.366866302490234375e+01
8.713766098022460938e+00 9.003123641014099121e-01 1.210467052459716797e+01
8.727807998657226562e+00 8.788364529609680176e-01 1.012186908721923828e+01
7.593947887420654297e+00 1.003631472587585449e+00 1.158692264556884766e+01
7.985244750976562500e+00 1.003425598144531250e+00 1.012252998352050781e+01
8.052051544189453125e+00 1.028614878654479980e+00 9.336636543273925781e+00
6.767637729644775391e+00 1.112428069114685059e+00 1.032341098785400391e+01
7.410432338714599609e+00 1.142516136169433594e+00 9.392149925231933594e+00
6.881934165954589844e+00 1.257113575935363770e+00 8.720725059509277344e+00
6.451619625091552734e+00 1.362090826034545898e+00 8.173940658569335938e+00
5.809581279754638672e+00 1.477140665054321289e+00 8.061571121215820312e+00
5.438325405120849609e+00 1.546212553977966309e+00 7.544601917266845703e+00
5.098433971405029297e+00 1.602595686912536621e+00 7.071643352508544922e+00
4.786775588989257812e+00 1.647935271263122559e+00 6.637785434722900391e+00
4.302411556243896484e+00 1.716636538505554199e+00 6.549419403076171875e+00
1.467663288116455078e+01 -9.539201259613037109e-01 1.850773048400878906e+01
1.489336395263671875e+01 -7.585517764091491699e-01 2.259916114807128906e+01
1.461192226409912109e+01 -5.326364040374755859e-01 1.842276954650878906e+01
1.462714099884033203e+01 -4.522489607334136963e-01 2.445126152038574219e+01
1.341156101226806641e+01 -2.506915628910064697e-01 2.034610557556152344e+01
1.119155693054199219e+01 -8.726473897695541382e-02 1.410777950286865234e+01
1.313438510894775391e+01 4.581665247678756714e-02 2.195044898986816406e+01
1.271834182739257812e+01 1.560928821563720703e-01 1.756175422668457031e+01
1.093843841552734375e+01 2.267946302890777588e-01 1.378619289398193359e+01
1.199854564666748047e+01 4.557841420173645020e-01 2.004720878601074219e+01
1.186841392517089844e+01 5.041456818580627441e-01 1.638484764099121094e+01
1.044055557250976562e+01 4.840889275074005127e-01 1.203511619567871094e+01
1.145434570312500000e+01 7.692204117774963379e-01 1.736650085449218750e+01
1.057918262481689453e+01 7.688069939613342285e-01 1.460205841064453125e+01
1.023267364501953125e+01 7.508927583694458008e-01 1.179355525970458984e+01
8.980457305908203125e+00 8.916187882423400879e-01 1.361214923858642578e+01
8.730651855468750000e+00 8.978895545005798340e-01 1.204816818237304688e+01
8.739930152893066406e+00 8.766754865646362305e-01 1.007181930541992188e+01
7.625901222229003906e+00 1.002799987792968750e+00 1.155638027191162109e+01
7.993432998657226562e+00 1.000274538993835449e+00 1.006775569915771484e+01
8.063038825988769531e+00 1.026109457015991211e+00 9.290254592895507812e+00
6.805505752563476562e+00 1.113099575042724609e+00 1.031044578552246094e+01
7.422551155090332031e+00 1.139666199684143066e+00 9.347031593322753906e+00
6.879614353179931641e+00 1.251542210578918457e+00 8.661752700805664062e+00
6.483414649963378906e+00 1.363223791122436523e+00 8.161439895629882812e+00
5.825564384460449219e+00 1.474619030952453613e+00 8.030516624450683594e+00
5.452708244323730469e+00 1.543430447578430176e+00 7.514753818511962891e+00
5.113669872283935547e+00 1.600278019905090332e+00 7.046090126037597656e+00
4.791455745697021484e+00 1.642269015312194824e+00 6.600553512573242188e+00
4.312163829803466797e+00 1.712213754653930664e+00 6.519629955291748047e+00
1.466579341888427734e+01 -9.492652416229248047e-01 1.835542488098144531e+01
1.504911231994628906e+01 -7.628283500671386719e-01 2.265430450439453125e+01
1.457949066162109375e+01 -5.294398069381713867e-01 1.824411392211914062e+01
1.470013713836669922e+01 -4.523870348930358887e-01 2.437007522583007812e+01
1.358122634887695312e+01 -2.529827952384948730e-01 2.044005966186523438e+01
1.119199180603027344e+01 -8.719491213560104370e-02 1.400261306762695312e+01
1.313621902465820312e+01 4.496736824512481689e-02 2.177202224731445312e+01
1.272130966186523438e+01 1.549172699451446533e-01 1.743102645874023438e+01
1.086026763916015625e+01 2.238224148750305176e-01 1.358512878417968750e+01
1.207089710235595703e+01 4.552150368690490723e-01 2.000140380859375000e+01
1.186590003967285156e+01 5.011069774627685547e-01 1.625566673278808594e+01
1.144929981231689453e+01 7.641990780830383301e-01 1.722124290466308594e+01
1.059726715087890625e+01 7.658956646919250488e-01 1.451480197906494141e+01
9.002625465393066406e+00 8.885436058044433594e-01 1.353760528564453125e+01
8.760605812072753906e+00 8.961501121520996094e-01 1.199677467346191406e+01
7.630625724792480469e+00 9.975951313972473145e-01 1.147192001342773438e+01
8.025279045104980469e+00 9.994193911552429199e-01 1.003219985961914062e+01
6.837712764739990234e+00 1.111939787864685059e+00 1.027718353271484375e+01
7.446789264678955078e+00 1.137927770614624023e+00 9.307368278503417969e+00
6.922469139099121094e+00 1.253363609313964844e+00 8.650491714477539062e+00
6.508304119110107422e+00 1.361996173858642578e+00 8.131479263305664062e+00
5.842091083526611328e+00 1.471189022064208984e+00 7.991598129272460938e+00
5.473202228546142578e+00 1.541279554367065430e+00 7.485219955444335938e+00
5.132466793060302734e+00 1.597936868667602539e+00 7.017833232879638672e+00
4.812116146087646484e+00 1.640923738479614258e+00 6.578259944915771484e+00
4.334917545318603516e+00 1.711620092391967773e+00 6.502218246459960938e+00
1.462947177886962891e+01 -9.435730576515197754e-01 1.819243621826171875e+01
1.506686496734619141e+01 -7.606282830238342285e-01 2.252712821960449219e+01
1.455653667449951172e+01 -5.269002318382263184e-01 1.809849166870117188e+01
1.464995861053466797e+01 -4.490553140640258789e-01 2.411525344848632812e+01
1.341963672637939453e+01 -2.492352724075317383e-01 2.005985260009765625e+01
1.124219417572021484e+01 -8.752263337373733521e-02 1.397517395019531250e+01
1.310899925231933594e+01 4.415332525968551636e-02 2.157340431213378906e+01
1.270495891571044922e+01 1.536940038204193115e-01 1.729427528381347656e+01
1.077000236511230469e+01 2.208271175622940063e-01 1.338579177856445312e+01
1.164657306671142578e+01 4.365070462226867676e-01 1.916199302673339844e+01
1.186244106292724609e+01 4.984792768955230713e-01 1.614421272277832031e+01
1.142995548248291016e+01 7.589521408081054688e-01 1.707559394836425781e+01
1.060493564605712891e+01 7.628688812255859375e-01 1.442993831634521484e+01
9.017318725585937500e+00 8.855212926864624023e-01 1.346780014038085938e+01
8.763949394226074219e+00 8.924080729484558105e-01 1.192257404327392578e+01
7.654402732849121094e+00 9.957571029663085938e-01 1.142969131469726562e+01
8.052989006042480469e+00 9.987543821334838867e-01 1.000231266021728516e+01
6.879926204681396484e+00 1.113330721855163574e+00 1.027058124542236328e+01
7.458493232727050781e+00 1.135082006454467773e+00 9.262254714965820312e+00
6.919674873352050781e+00 1.247796535491943359e+00 8.591595649719238281e+00
6.513892650604248047e+00 1.357685565948486328e+00 8.086325645446777344e+00
5.856594562530517578e+00 1.468376517295837402e+00 7.958910942077636719e+00
5.481464862823486328e+00 1.536860704421997070e+00 7.447380542755126953e+00
5.149801254272460938e+00 1.596344590187072754e+00 6.995388031005859375e+00
4.830410003662109375e+00 1.639997243881225586e+00 6.560003757476806641e+00
4.349855422973632812e+00 1.709339380264282227e+00 6.480510711669921875e+00
1.460674381256103516e+01 -9.382569193840026855e-01 1.802841949462890625e+01
1.510575485229492188e+01 -7.590086460113525391e-01 2.240708160400390625e+01
1.133718490600585938e+01 -4.088357686996459961e-01 1.399046897888183594e+01
1.463379764556884766e+01 -4.465025067329406738e-01 2.389085578918457031e+01
1.356239223480224609e+01 -2.510261237621307373e-01 2.011333084106445312e+01
1.127822780609130859e+01 -8.772852271795272827e-02 1.391522979736328125e+01
1.311797142028808594e+01 4.335468262434005737e-02 2.141095542907714844e+01
1.270042705535888672e+01 1.524601876735687256e-01 1.715597915649414062e+01
1.075475883483886719e+01 2.192082405090332031e-01 1.326700782775878906e+01
1.181283855438232422e+01 4.395801424980163574e-01 1.927605056762695312e+01
1.190724468231201172e+01 4.974911212921142578e-01 1.608136367797851562e+01
1.141867065429687500e+01 7.536506056785583496e-01 1.692426681518554688e+01
1.062087249755859375e+01 7.598811984062194824e-01 1.434122371673583984e+01
9.055432319641113281e+00 8.840899467468261719e-01 1.341813945770263672e+01
8.787369728088378906e+00 8.900727033615112305e-01 1.186313533782958984e+01
7.680600166320800781e+00 9.934468865394592285e-01 1.137844944000244141e+01
8.054405212402343750e+00 9.941815733909606934e-01 9.929406166076660156e+00
6.924191474914550781e+00 1.114147067070007324e+00 1.025524234771728516e+01
7.489862442016601562e+00 1.134487748146057129e+00 9.231806755065917969e+00
6.936069965362548828e+00 1.244900822639465332e+00 8.547703742980957031e+00
6.522218704223632812e+00 1.353091120719909668e+00 8.036271095275878906e+00
5.875096321105957031e+00 1.465538263320922852e+00 7.923144817352294922e+00
5.499295711517333984e+00 1.534057259559631348e+00 7.414619445800781250e+00
5.166003227233886719e+00 1.593283295631408691e+00 6.963886260986328125e+00
4.846214771270751953e+00 1.637075543403625488e+00 6.531293392181396484e+00
4.364791393280029297e+00 1.705752849578857422e+00 6.451641559600830078e+00
1.457037544250488281e+01 -9.321241378784179688e-01 1.784933853149414062e+01
1.508553695678710938e+01 -7.544603347778320312e-01 2.220106506347656250e+01
1.136815738677978516e+01 -4.084313511848449707e-01 1.392402935028076172e+01
1.457415771484375000e+01 -4.426607787609100342e-01 2.359884643554687500e+01
1.413626861572265625e+01 -2.607613205909729004e-01 2.079953002929687500e+01
1.131017684936523438e+01 -8.790176361799240112e-02 1.385056114196777344e+01
1.312172603607177734e+01 4.255137592554092407e-02 2.124192619323730469e+01
1.270222663879394531e+01 1.513189673423767090e-01 1.702756690979003906e+01
1.074005413055419922e+01 2.176209092140197754e-01 1.315006637573242188e+01
1.184871387481689453e+01 4.377932846546173096e-01 1.917650604248046875e+01
1.197805023193359375e+01 4.975991547107696533e-01 1.605365943908691406e+01
1.139856529235839844e+01 7.478408813476562500e-01 1.676168441772460938e+01
1.066259193420410156e+01 7.587692737579345703e-01 1.428781604766845703e+01
9.068593025207519531e+00 8.802626729011535645e-01 1.333205413818359375e+01
8.802115440368652344e+00 8.868983387947082520e-01 1.179248523712158203e+01
7.707647323608398438e+00 9.912840127944946289e-01 1.132882022857666016e+01
8.094512939453125000e+00 9.944179654121398926e-01 9.904488563537597656e+00
6.971799373626708984e+00 1.115502357482910156e+00 1.024465847015380859e+01
7.499688148498535156e+00 1.130665779113769531e+00 9.175045967102050781e+00
6.947204589843750000e+00 1.241108417510986328e+00 8.497653007507324219e+00
6.544073581695556641e+00 1.351350665092468262e+00 8.003150939941406250e+00
5.905255317687988281e+00 1.465640783309936523e+00 7.903196811676025391e+00
5.522864818572998047e+00 1.532894730567932129e+00 7.389729022979736328e+00
5.196177005767822266e+00 1.594560742378234863e+00 6.951266288757324219e+00
4.861874580383300781e+00 1.634155511856079102e+00 6.502555370330810547e+00
4.382876873016357422e+00 1.703451514244079590e+00 6.427592277526855469e+00
1.153366279602050781e+01 -7.353050708770751953e-01 1.403893852233886719e+01
1.564299774169921875e+01 -9.985094070434570312e-01 2.515845489501953125e+01
1.498928260803222656e+01 -7.466732859611511230e-01 2.191098213195800781e+01
1.137630462646484375e+01 -4.074324965476989746e-01 1.384498023986816406e+01
1.447185516357421875e+01 -4.378534853458404541e-01 2.326934623718261719e+01
1.337485980987548828e+01 -2.460045218467712402e-01 1.954684638977050781e+01
1.127490329742431641e+01 -8.756294101476669312e-02 1.371916294097900391e+01
1.310599040985107422e+01 4.181247949600219727e-02 2.106814193725585938e+01
1.269440841674804688e+01 1.502424925565719604e-01 1.690602111816406250e+01
1.071527385711669922e+01 2.160308063030242920e-01 1.303593444824218750e+01
1.189621448516845703e+01 4.368979632854461670e-01 1.911882972717285156e+01
1.095020484924316406e+01 4.526932835578918457e-01 1.458031749725341797e+01
1.140937805175781250e+01 7.447526454925537109e-01 1.666479873657226562e+01
1.068341159820556641e+01 7.567740082740783691e-01 1.422232151031494141e+01
9.098005294799804688e+00 8.787764310836791992e-01 1.328540229797363281e+01
8.828312873840332031e+00 8.855723142623901367e-01 1.175043964385986328e+01
7.726274967193603516e+00 9.888756275177001953e-01 1.127989578247070312e+01
8.106574058532714844e+00 9.918983578681945801e-01 9.855941772460937500e+00
7.010687351226806641e+00 1.116357207298278809e+00 1.023260116577148438e+01
7.519603729248046875e+00 1.129155874252319336e+00 9.140714645385742188e+00
6.965009212493896484e+00 1.239368557929992676e+00 8.465083122253417969e+00
6.550261497497558594e+00 1.347305297851562500e+00 7.959625720977783203e+00
5.899116992950439453e+00 1.457837343215942383e+00 7.843545436859130859e+00
5.532984733581542969e+00 1.529136657714843750e+00 7.355047702789306641e+00
5.195495128631591797e+00 1.587551236152648926e+00 6.905092716217041016e+00
4.874002933502197266e+00 1.631259202957153320e+00 6.476334571838378906e+00
4.394177436828613281e+00 1.699890971183776855e+00 6.400958538055419922e+00
1.158887100219726562e+01 -7.358688712120056152e-01 1.400116634368896484e+01
1.556524467468261719e+01 -9.883787631988525391e-01 2.482993888854980469e+01
1.502977657318115234e+01 -7.452531456947326660e-01 2.179826736450195312e+01
