# .PCD v0.7 - Point Cloud Data file format
VERSION 0.7
FIELDS x y z intensity
SIZE 4 4 4 4
TYPE F F F F
COUNT 1 1 1 1
WIDTH 432
HEIGHT 1
VIEWPOINT 0 0 0 1 0 0 0
POINTS 432
DATA ascii
1.1108564 4.6287627 0.89106917 0
1.1938331 3.7189729 0.31767711 0
1.0232776 5.0226121 -0.23191352 0
-0.38778433 5.1625466 -0.72699189 0
-0.40662691 5.1344037 -1.2815647 0
-0.49448407 6.1306982 -1.7577645 0
1.020972 4.3811069 0.89812624 0
1.1798886 2.7553251 0.31604323 0
0.9060263 5.0334978 -0.22701672 0
-0.50030988 5.1307559 -0.72367036 0
-0.52004337 5.1145782 -1.2779691 0
-0.60195374 6.0753131 -1.7572294 0
0.89956838 4.564959 0.89964962 0
0.99777502 3.4556324 0.32451952 0
-0.59869987 5.1323209 -0.71967363 0
-0.61761302 5.1021848 -1.2746373 0
-0.69322437 6.009378 -1.7581793 0
0.77513492 4.630177 0.90312165 0
0.91054577 3.1245785 0.32708064 0
-0.71173203 5.1052833 -0.7161839 0
-0.73180634 5.0930948 -1.2704606 0
-0.79791814 5.8929772 -1.7622738 0
0.66128147 4.5963955 0.90774965 0
0.7607972 3.3926988 0.3333554 0
0.5666309 5.1181798 -0.21183731 0
-0.82581413 5.0946178 -0.71205258 0
-0.84495485 5.0644875 -1.2674319 0
-0.91168004 5.9302831 -1.7547932 0
0.87518829 1.6219903 1.5643042 0
0.5583809 4.6203666 0.91109359 0
0.63343233 3.6292958 0.33870977 0
0.47791499 5.0129499 -0.21041903 0
-0.92278242 5.0692725 -0.70916772 0
-0.94417387 5.0810289 -1.2624897 0
-1.0040295 5.8652825 -1.755705 0
0.74923152 1.5978976 1.5694427 0
0.44077986 4.625195 0.91526973 0
0.5019716 3.7432983 0.34394139 0
-1.0350002 5.0174608 -0.7066921 0
-1.0545733 4.9913645 -1.2630001 0
-1.1150692 5.8495698 -1.7522681 0
0.62078279 1.6001468 1.573809 0
0.32415709 4.6205001 0.91956353 0
0.40467834 3.4873219 0.3470445 0
-1.1479307 4.9740391 -0.70388913 0
-1.1683218 4.9639273 -1.2599517 0
1.7088493 4.0445266 -1.8187319 0
-1.2262886 5.8362536 -1.7486796 0
0.51143366 1.594484 1.5777885 0
0.22255817 4.6356025 0.92301154 0
0.37674695 2.6114669 0.34612495 0
0.14046644 5.0962963 -0.19544376 0
-1.2419287 4.8638368 -0.70436198 0
-1.1744359 2.695112 -1.3854598 0
1.6454622 3.7362576 -1.8363488 0
-1.3191574 5.762248 -1.7503039 0
0.2500149 3.1752925 1.5344509 0
0.1071825 4.6177635 0.92747426 0
0.3303811 1.6721733 0.34575728 0
0.029730648 5.0427322 -0.19216035 0
-1.1515007 -0.58683705 -0.9134661 0
-1.117341 -2.1687484 -1.6573554 0
1.5048774 3.8910387 -1.8194994 0
-1.4335099 5.8254204 -1.7410549 0
0.12042262 3.2670424 1.5359288 0
-0.0086054662 4.6043315 0.93188918 0
-0.092020288 5.1251049 -0.18574251 0
1.2719114 4.9924369 -1.1752849 0
1.3767631 3.9533393 -1.8094326 0
-1.5420238 5.7255588 -1.7439914 0
-0.0032444778 3.2915237 1.5394455 0
-0.12978148 4.6611137 0.93541723 0
0.45013222 -3.2878354 0.33002907 0
1.2203834 4.8021669 -0.056199968 0
-0.20506255 5.1002827 -0.1818141 0
1.1719747 5.031301 -0.60996342 0
1.1485174 5.0518174 -1.1669712 0
1.2652194 3.879436 -1.8092568 0
-0.10398733 3.2439539 1.5445617 0
-0.22551556 4.6038737 0.93979192 0
0.47122025 -5.3037767 0.32467502 0
1.2138484 3.9959257 -0.067218393 0
-0.30062196 5.0591044 -0.17890376 0
1.0696287 5.0553913 -0.60496193 0
1.0453545 5.0838265 -1.160906 0
1.1778949 3.7405114 -1.8145605 0
-0.21883725 3.1456387 1.5518707 0
-0.34236404 4.6056237 0.94402617 0
-0.29499647 3.6082382 0.37374294 0
1.1070995 3.8789625 -0.064661175 0
-0.41863322 5.1028633 -0.1734298 0
0.951352 5.0759749 -0.5994246 0
0.92522496 5.1222625 -1.1538061 0
1.0522331 3.7842748 -1.8059319 0
-0.23775819 1.5936179 1.6040801 0
-0.46008769 4.6217718 0.94807458 0
-0.33747971 2.4127245 0.37263915 0
0.98872113 3.8617492 -0.060258787 0
-0.53385055 5.1091576 -0.16882227 0
0.83478028 5.0830965 -0.59439778 0
0.81012392 5.1174755 -1.1490748 0
0.94474989 3.6619003 -1.8092695 0
-0.34576368 1.5707141 1.6086681 0
-0.55971551 4.6174288 0.95178449 0
-0.5271461 3.7493534 0.38281518 0
0.88367945 3.8805749 -0.055880744 0
-0.62887931 5.0550194 -0.1662145 0
0.7338075 5.1003385 -0.58970487 0
0.70762569 5.1505995 -1.1430372 0
0.84759659 3.5992408 -1.8091027 0
-0.4737474 1.5750134 1.6130736 0
-0.67499566 4.5964556 0.95632994 0
-0.66329718 4.0316677 0.38858467 0
0.79998189 3.5239961 -0.057602849 0
-0.74084026 5.0041995 -0.16289186 0
0.61826813 5.1003165 -0.58497322 0
0.59108371 5.1625118 -1.1374613 0
0.73730552 3.491432 -1.8113968 0
-0.6020056 1.5857731 1.6172887 0
-0.79514891 4.6617618 0.95972055 0
-0.76736444 3.765362 0.39190048 0
0.64270109 3.8900044 -0.046330441 0
-0.85487056 4.9857283 -0.15885209 0
0.50024754 5.1265864 -0.57932234 0
0.47563702 5.1649241 -1.1324228 0
0.61441517 3.5071132 -1.8048909 0
-0.72765338 1.5490949 1.6230016 0
-0.91170722 4.6676073 0.96390778 0
-0.81191123 2.2929676 0.39023903 0
0.52449876 3.8724952 -0.041966967 0
0.38395831 5.1373811 -0.57424647 0
0.35987982 5.1717405 -1.1271759 0
0.49812371 3.4537237 -1.8033352 0
-0.96383339 3.6879263 0.98103368 0
-0.98258328 3.6241422 0.39968041 0
0.4239203 3.849015 -0.038380139 0
0.28337085 5.1580682 -0.56950784 0
0.26086029 5.1765041 -1.1227574 0
0.39034882 3.495723 -1.7957885 0
-1.1227946 4.563448 0.97328705 0
1.5405914 5.556725 0.49232593 0
-1.1493868 4.6855755 0.40836254 0
0.35080218 3.3163669 -0.043011859 0
-1.1709607 4.6978121 -0.15243761 0
0.17012142 5.1378126 -0.56556618 0
0.14578459 5.1781497 -1.1178348 0
0.28037962 3.3656113 -1.7997104 0
-1.2563443 4.9781179 0.97176719 0
1.4251004 5.5637832 0.49660063 0
-1.2989372 5.5139728 0.41586512 0
-1.1650702 1.6340275 -0.21394536 0
0.055599134 5.1319132 -0.56113225 0
0.030429976 5.1842031 -1.1127049 0
0.12153012 3.8204463 -1.7623099 0
-0.99928439 -4.956378 1.1165887 0
1.3214107 5.478004 0.50077409 0
-1.4111598 5.4936128 0.42003602 0
-1.0936377 -3.866056 -0.32670966 0
-0.059564244 5.1344028 -0.55642092 0
-0.084528156 5.1866999 -1.1077887 0
1.7489092 1.3759493 -1.789943 0
0.04055921 3.3252735 -1.7920359 0
0.39670694 -1.7805302 -0.11636787 0
-0.15866925 5.1425719 -0.55218667 0
-0.18164009 5.1709728 -1.1045346 0
1.7156065 0.72431701 -1.8281335 0
-0.044891074 3.0763223 -1.805075 0
1.2394087 4.5538058 1.0747864 0
1.2748901 4.0740547 0.5076142 0
0.3488256 -3.0375919 -0.13218179 0
-0.26978922 5.0920291 -0.54934692 0
1.1038089 5.044982 -0.97904062 0
-0.29598925 5.1662874 -1.1000394 0
1.1202952 4.7170472 -1.5579942 0
-0.18028396 3.2581098 -1.7870936 0
1.1081535 4.6693554 1.0769491 0
-0.27812576 3.8641739 -0.010973997 0
-0.38524747 5.0997114 -0.54450011 0
0.98815483 5.0415483 -0.97424692 0
-0.41102266 5.1719851 -1.0950242 0
1.0254993 4.5171232 -1.5659384 0
-0.29445782 3.1478362 -1.7896534 0
1.0036602 4.7038155 1.0799005 0
1.2371659 2.420917 0.51503521 0
-0.4840295 5.1049261 -0.54040778 0
0.8982619 4.9549751 -0.97417468 0
-0.50630838 5.1273818 -1.0933263 0
1.050794 3.3590999 -1.6377009 0
-0.39174181 3.0351408 -1.7931179 0
0.8865664 4.7030334 1.0840535 0
1.0791157 2.7214684 0.51983052 0
-0.50881761 4.0070343 -8.3013343e-05 0
-0.59833574 5.0974431 -0.53611505 0
0.77265233 5.0436845 -0.96499652 0
-0.62126511 5.1318636 -1.0884151 0
0.93343914 3.3141026 -1.6352413 0
-0.50802916 2.935555 -1.7949289 0
0.76826304 4.7146201 1.0879943 0
0.95253736 2.7422383 0.52447206 0
-0.62655747 3.9897435 0.0041966704 0
-0.71161491 5.0724192 -0.53243458 0
0.65160578 5.0951352 -0.9576481 0
-0.73350072 5.090909 -1.0858846 0
0.91030574 2.3402939 -1.6936662 0
-0.62992698 2.9220221 -1.7907549 0
0.66783082 4.7163773 1.091518 0
0.87084591 2.4966176 0.52841091 0
-0.73488039 4.1056104 0.0099822134 0
-0.80913651 5.0567131 -0.52909201 0
0.54669434 5.1546597 -0.9506464 0
-0.83151418 5.085186 -1.0822054 0
0.81030667 2.2618244 -1.6940672 0
-0.7301023 2.830235 -1.79277 0
0.54993492 4.7267933 1.0954843 0
0.73786479 2.5778928 0.53307182 0
-0.92237502 5.0264668 -0.52560592 0
0.43123713 5.1572657 -0.94569063 0
-0.94476259 5.0569596 -1.0790445 0
0.89341229 0.057929188 -1.8323293 0
-0.87296253 3.2240255 -1.7604117 0
0.43290892 4.7296839 1.0995879 0
0.52555913 3.5139544 0.53757781 0
-0.95142674 3.6955993 0.012498567 0
-1.0366772 5.0146012 -0.5215081 0
0.31492803 5.1702442 -0.94026762 0
-1.0575303 5.0151763 -1.0765959 0
0.77149129 -0.073999129 -1.8350928 0
-0.99367774 3.2078457 -1.7565541 0
0.31378114 4.756906 1.1032561 0
0.40272352 3.5328088 0.54208893 0
-1.072521 3.7258723 0.017548451 0
-1.1494442 4.9672093 -0.51861435 0
0.19770236 5.1956005 -0.93428797 0
-1.1696193 4.9518504 -1.075263 0
0.64447832 -0.15780029 -1.8347257 0
-1.1063107 3.002733 -1.7657604 0
0.21469729 4.7481551 1.1069827 0
1.4965961 5.4907069 0.67608559 0
0.44447669 1.8559825 0.54663932 0
-1.2148824 4.6743903 0.03633428 0
-1.2053853 3.9363115 -0.54922521 0
0.10136452 5.1710472 -0.93136239 0
-1.1841602 2.8858981 -1.1770116 0
0.53803086 -0.26337087 -1.836603 0
-1.1976234 2.6671603 -1.7846324 0
0.098564975 4.7443194 1.1112208 0
1.380141 5.5039067 0.68021023 0
0.58694601 -1.3895929 0.55314857 0
-1.1635002 0.30940047 -0.027105195 0
-1.1434762 -0.8564766 -0.70408279 0
-0.014965785 5.1892414 -0.92576724 0
-1.0863829 -3.0652959 -1.4756786 0
-0.02209953 5.0131197 -1.4898797 0
-1.3198278 2.6342213 -1.7819309 0
-0.017877568 4.7448945 1.1153843 0
1.2741464 5.4341826 0.68473911 0
0.76454633 -5.3782959 0.56105536 0
-0.1283447 5.172019 -0.92185402 0
-0.13398233 4.9679947 -1.487879 0
-0.11592427 4.7232299 1.1193688 0
-0.12858725 4.6125174 0.55797058 0
1.2348082 4.7687201 0.13091168 0
1.1859846 5.0005507 -0.42460474 0
-0.22699811 5.1763711 -0.91762286 0
-0.22739069 4.8926673 -1.4885342 0
-0.23339695 4.7385588 1.1232694 0
1.1614467 4.5746427 0.69697893 0
-0.24297222 4.5799475 0.56235641 0
1.2202717 3.8849487 0.124311 0
1.0616561 5.070375 -0.41774541 0
-0.34005389 5.1539416 -0.91398519 0
-0.33339959 4.7546964 -1.492515 0
1.0777435 4.4623675 1.2694952 0
-0.34795165 4.7144294 1.1279153 0
1.1094371 3.9929316 0.7043801 0
-0.35852563 4.561759 0.56673384 0
1.1025971 3.8613842 0.12866254 0
0.94055349 5.116847 -0.41162992 0
-0.45511431 5.1598325 -0.90905219 0
-0.12319718 -0.16064212 -1.8023169 0
0.95712203 4.485189 1.2730578 0
-0.46357182 4.7046814 1.1323005 0
1.1730052 2.3157339 0.71791011 0
-0.47613189 4.5739269 0.57107788 0
0.98501652 3.8362584 0.13299316 0
0.8249923 5.1160874 -0.40696678 0
-0.56858432 5.1422219 -0.90522659 0
-0.56734067 4.782618 -1.481032 0
0.85102075 4.532095 1.2754734 0
-0.56068903 4.6644468 1.1366746 0
1.1769056 1.2621272 0.72773147 0
-0.57404923 4.5396495 0.57485694 0
0.87989908 3.8551226 0.13719635 0
0.72558564 5.1194701 -0.40286112 0
-0.66379601 5.0921288 -0.90357041 0
-0.6647774 4.7504263 -1.4789664 0
0.7350021 4.5159965 1.27995 0
-0.67697543 4.6634641 1.1409118 0
0.70231932 4.6270127 0.71329957 0
-0.69311374 4.5785708 0.57915884 0
0.61011648 5.1195087 -0.39820334 0
-0.77442098 5.0194278 -0.90229595 0
-0.79195559 4.9507375 -1.4614488 0
0.61475587 4.5421042 1.2834411 0
-0.79191732 4.6389503 1.145611 0
1.2668345 -2.2749934 0.75789899 0
-0.81001121 4.583993 0.58350253 0
0.64420521 3.8089077 0.14588897 0
0.49507979 5.1159945 -0.39366639 0
-0.88829654 4.998991 -0.89863247 0
-0.90702474 4.9482422 -1.4568846 0
0.51327074 4.5503421 1.2867699 0
-0.88980305 4.603724 1.1499261 0
0.47567773 4.721179 0.72072601 0
-0.8450017 3.3243737 0.58940047 0
0.5487662 3.7293301 0.14890873 0
0.39244306 5.1562552 -0.3885096 0
-0.98401856 4.9418964 -0.89730847 0
-1.007439 4.9828939 -1.4506661 0
0.39488336 4.5613594 1.2906247 0
-1.0057628 4.5939655 1.154362 0
0.36525726 4.6525989 0.7254318 0
-0.98533773 3.7259135 0.59317613 0
0.41977787 3.8237207 0.15462723 0
0.27669463 5.1634994 -0.38368887 0
-1.1036052 5.0379815 -0.88837326 0
-1.118832 4.9034271 -1.4510208 0
0.2787419 4.5489178 1.2950476 0
-1.1135308 4.4008527 1.1624259 0
0.24365392 4.7059317 0.72939712 0
-1.1807932 5.4427447 0.59421533 0
0.38658422 2.8328438 0.14783897 0
0.1667494 5.1054506 -0.38079631 0
-1.2159485 4.9808187 -0.88642752 0
-1.233115 4.8801947 -1.447837 0
0.16085093 4.5568252 1.2989906 0
0.12820753 4.6919727 0.73377651 0
-1.296134 5.4939194 0.59833616 0
0.27881896 2.6449146 0.15043744 0
0.049456339 5.131465 -0.37545347 0
-1.2289996 2.3506117 -1.000649 0
-1.1273364 -0.92901993 -1.8083771 0
0.06097478 4.5505714 1.3026911 0
0.028274858 4.6917348 0.73745745 0
-1.3912493 5.4461908 0.60206258 0
0.032028727 4.3843794 0.17404401 0
-0.047322918 5.1094179 -0.37217742 0
-1.1458498 -2.9847591 -1.2366791 0
-1.2400631 -1.0532515 -1.8115031 0
-0.057098873 4.563271 1.3065301 0
-0.088798285 4.6985035 0.74170589 0
0.42829952 -2.2887506 0.10454372 0
-0.16161704 5.1003575 -0.36788139 0
-0.17177002 4.5325484 1.3114384 0
-0.19885054 4.6119633 0.74658293 0
0.36734685 -3.3964267 0.097846977 0
-0.27710256 5.107667 -0.36312726 0
-0.27255538 4.5393076 1.3148438 0
-0.29852536 4.6067762 0.75030875 0
-0.2526539 3.6528032 0.17895772 0
-0.37437797 5.0906253 -0.35973147 0
-0.38692081 4.5013833 1.3199564 0
-0.41440034 4.5948024 0.75469929 0
-0.3639265 3.5188642 0.18210781 0
-0.48939562 5.0927391 -0.35515225 0
-0.50371033 4.4977942 1.3242334 0
-0.53147334 4.6012135 0.75896281 0
-0.49884436 3.7465732 0.18910302 0
-0.60374779 5.0852981 -0.35085791 0
-0.60165697 4.4597044 1.3287821 0
-0.6285097 4.5531535 0.76300514 0
-0.61633623 3.9958024 0.19560647 0
-0.70213854 5.0852427 -0.34700841 0
-0.71868491 4.4589 1.3330115 0
-0.74665719 4.57833 0.76713598 0
-0.7246477 3.8092034 0.19820102 0
-0.81607527 5.0705991 -0.34293878 0
-0.83215839 4.3926411 1.3389037 0
-0.85972685 4.5120745 0.77194935 0
-0.83638954 3.6629066 0.20125017 0
-0.92699987 4.9964747 -0.34053701 0
-0.9473905 4.3527474 1.3441527 0
-0.91888589 3.3435953 0.78522807 0
-0.95044225 3.5429652 0.20459752 0
-1.0419898 4.9966321 -0.33606729 0
-1.0433427 4.2541184 1.3503112 0
-1.0731241 4.4374819 0.78056306 0
-1.0647781 3.7898092 0.21094635 0
-1.1394974 4.9739923 -0.33287585 0
-1.2314032 5.4094272 0.77720797 0
-1.2424989 5.1852732 0.22907236 0
-1.2018148 3.6944993 -0.36358652 0
-1.3442901 5.3968658 0.78151649 0
-1.3674185 5.4664497 0.23609421 0
-1.0973514 -2.2818961 -0.52233267 0
1.2165546 4.7750621 -1.3711091 0
1.128564 4.8503351 -0.80116403 0
1.1074133 4.8504424 -1.3621229 0
1.0126435 4.8428669 -0.79657024 0
0.98994225 4.8568578 -1.3565893 0
0.9056226 4.7543821 -0.79540449 0
0.87278348 4.8617287 -1.3511794 0
0.77113444 4.9206243 -0.78355259 0
0.750916 4.9127026 -1.3430457 0
0.66707754 4.9638886 -0.77759868 0
0.64788985 4.9459877 -1.3367299 0
0.54910731 4.9839725 -0.77195132 0
0.53085709 4.9561071 -1.3311059 0
0.4332186 4.9846091 -0.76713735 0
0.41337928 4.9726248 -1.3251343 0
0.33266857 4.9991426 -0.7624492 0
0.3119069 4.997077 -1.3194332 0
0.21779582 4.9906278 -0.75805253 0
0.19772966 4.9806032 -1.3154706 0
1.4872 5.322535 0.31012961 0
0.10054427 5.0104122 -0.7525115 0
0.082469597 4.9764857 -1.3108034 0
1.3815833 5.3754764 0.31426087 0
0.0035673641 4.9861779 -0.74946856 0
-0.016387437 4.9741478 -1.306754 0
-0.15869865 6.4985142 -1.7454331 0
1.3191919 5.1188331 0.87603074 0
1.2731384 5.3215766 0.31825885 0
-0.11163943 4.9828563 -0.74491143 0
-0.13116929 4.9648461 -1.3024391 0
-0.27533096 6.5870981 -1.7338992 0
1.2616912 4.6323662 0.88560361 0
1.2540336 4.5174112 0.31718305 0
1.2071358 4.732151 -0.24504152 0
-0.22801495 4.9959035 -0.73970801 0
-0.24802768 4.9838424 -1.2964965 0
-0.38723466 6.6204453 -1.7266293 0
