# .PCD v0.7 - Point Cloud Data file format
VERSION 0.7
FIELDS x y z intensity
SIZE 4 4 4 4
TYPE F F F F
COUNT 1 1 1 1
WIDTH 917
HEIGHT 1
VIEWPOINT 0 0 0 1 0 0 0
POINTS 917
DATA ascii
0.7024498 -0.42623687 0.65343136 0
0.76864845 0.11416772 0.49347204 0
0.68913621 -0.19130583 0.67012513 0
0.75475979 0.32876492 0.51245111 0
0.54298449 -0.98257607 0.83139575 0
0.67726296 0.041586339 0.68666631 0
0.73380208 0.47813749 0.52559084 0
0.52784425 -0.80526567 0.84089142 0
0.67443144 0.2854929 0.70401114 0
0.72777629 0.68796223 0.54416442 0
0.50510496 -0.64492285 0.84945989 0
0.65925467 0.47080454 0.71713454 0
0.71543401 0.88268262 0.56135017 0
0.91138685 -1.8750175 -0.072811827 0
0.92059886 -1.7630002 -0.29054943 0
0.48549449 -0.47073898 0.85876536 0
0.64344072 0.64225364 0.72925872 0
0.71239382 1.1325703 0.58346963 0
0.86301821 -1.8877689 0.15898222 0
0.90076691 -1.4909023 -0.027352137 0
0.91015589 -1.3817395 -0.2387404 0
0.45034608 -0.41118386 0.86189568 0
0.62625831 0.79590666 0.74010193 0
0.69063324 1.24239 0.5930472 0
0.88484573 -1.1859199 0.0086828526 0
0.90188247 -1.0064933 -0.18775821 0
0.41902748 -0.37021604 0.86402965 0
0.6132127 0.93295002 0.74977422 0
0.78826714 -1.7533486 0.40366533 0
0.65741611 1.2352152 0.59217799 0
0.84670436 -1.1860656 0.22967474 0
0.87979025 -0.85993576 0.047250483 0
0.89672732 -0.68719524 -0.14438139 0
0.38703454 -0.29467994 0.86800444 0
0.58023739 0.97022039 0.75226349 0
0.77476937 -1.4352019 0.43009576 0
0.53356177 0.67366928 0.54159456 0
0.83072871 -0.91018909 0.25740433 0
0.86779147 -0.55904222 0.082787193 0
0.88834351 -0.35944742 -0.099901415 0
0.35756069 -0.24565814 0.87055874 0
0.54886299 0.98113173 0.75288123 0
0.76761478 -1.139647 0.45465225 0
0.59172606 1.2613792 0.59399831 0
0.81786782 -0.68054533 0.2804755 0
0.8568998 -0.3220593 0.1107513 0
0.8847028 -0.063971564 -0.059785645 0
0.3258616 -0.17391442 0.87431455 0
0.51248479 0.99496686 0.75367177 0
0.75413078 -0.85928333 0.47791311 0
0.5595355 1.2947108 0.59668607 0
0.8078832 -0.38500628 0.31018388 0
0.83833694 -0.11206137 0.13545224 0
0.87736368 0.23404472 -0.019376693 0
1.1184232 -3.1172485 -1.2362009 0
0.28786832 -0.14348114 0.8758381 0
0.47586286 1.0069616 0.75432003 0
0.73983872 -0.60273767 0.4991774 0
0.36597884 0.34522861 0.5112319 0
0.79530984 -0.12907305 0.33587396 0
0.95873183 1.2436562 0.29665312 0
0.86108732 0.43948177 0.0083545055 0
1.0663791 -3.1055615 -1.2343829 0
0.25371262 -0.091257393 0.87852687 0
0.43831488 1.0131849 0.75454384 0
0.72911686 -0.33240619 0.52158654 0
0.32105398 0.32238421 0.50882655 0
0.78264123 0.11099495 0.35995069 0
0.92522329 1.2737212 0.29993162 0
0.85287178 0.69799209 0.043349877 0
1.0128431 -3.1132765 -1.2362815 0
0.22245799 -0.059634786 0.88011736 0
0.40581244 1.0166626 0.75459391 0
0.72302628 -0.088611946 0.54179901 0
0.77692115 0.34633079 0.38358119 0
0.89437896 1.281566 0.30059284 0
0.84867823 0.93017501 0.074798606 0
0.9665966 -3.1233673 -1.2385994 0
0.18134503 -0.050504815 0.88046938 0
0.36761248 1.0192122 0.7545343 0
0.70954961 0.1321404 0.56005543 0
0.75755173 0.50930542 0.39983276 0
0.86015528 1.3039672 0.30292922 0
0.83551043 1.1236633 0.10088385 0
0.91308576 -3.1287525 -1.2401272 0
1.0602391 -1.4121903 -1.1379212 0
0.15109359 -0.014752978 0.88226908 0
0.34106907 1.056303 0.75698197 0
0.70496219 0.36392915 0.57925743 0
0.82706279 1.2942955 0.30147576 0
0.82815564 1.310522 0.12612061 0
0.86792892 -3.1248209 -1.239845 0
1.01942 -1.420432 -1.1401006 0
0.11123184 0.00053073798 0.88293666 0
0.29691264 1.025728 0.75452292 0
0.68213797 0.49371618 0.58989996 0
0.73375362 0.87785518 0.4366799 0
0.79111278 1.3031539 0.30216691 0
0.81361145 1.4744639 0.14815019 0
0.94241554 -1.7937257 -0.52584738 0
0.95186061 -1.6747493 -0.73645896 0
0.8169089 -3.1024444 -1.2361737 0
0.97354519 -1.4103806 -1.1385974 0
0.073644005 0.0277356 0.88423854 0
0.26162198 1.0443759 0.75558978 0
0.67249215 0.71036315 0.60779798 0
0.72716045 1.1057869 0.45950711 0
0.75854325 1.3357425 0.30567375 0
0.93163604 -1.4075215 -0.46658894 0
0.9157424 -1.554529 -0.71623272 0
0.90960997 -1.6031132 -0.95210683 0
0.92734939 -1.4040604 -1.1379042 0
0.029160051 0.017783077 0.88352782 0
0.22049502 1.0317831 0.75440019 0
0.66212922 0.91115373 0.62436599 0
0.72393 1.3454427 0.48352337 0
0.78152663 1.7571473 0.18599571 0
0.87614298 -1.493456 -0.48027933 0
0.88721126 -1.3675325 -0.68452787 0
0.89744294 -1.2524158 -0.88608682 0
0.91505337 -1.06239 -1.0676337 0
-0.0019723633 0.046091441 0.88489878 0
0.18914475 1.0418295 0.75487041 0
0.66319633 1.1426404 0.6435321 0
0.70155501 1.4090378 0.48970786 0
0.73911262 1.669639 0.34479433 0
0.76943678 1.88108 0.20259154 0
0.88040543 -1.0478425 -0.62990582 0
0.88747549 -0.96696508 -0.83237547 0
0.88937998 -0.93379152 -1.041507 0
-0.047279298 0.032519821 0.88397574 0
0.15172647 1.049103 0.75508946 0
0.62823874 1.1619673 0.6449095 0
-0.19239214 -0.69376332 0.41420978 0
0.69982016 1.6473917 0.34172156 0
0.74254549 1.9351912 0.20952506 0
0.90105134 -0.44674996 -0.31933868 0
0.88810688 -0.55313313 -0.54520255 0
0.86756498 -0.7317124 -0.78829008 0
0.84621149 -0.91548181 -1.0383997 0
-0.086826839 0.04850284 0.88463879 0
0.70146281 -1.9197751 0.62434876 0
0.11158931 1.042822 0.75432199 0
-0.24047533 -0.70657408 0.41253072 0
0.51776999 0.70223063 0.41721299 0
0.51521361 0.69308865 0.22724375 0
0.71572685 1.987414 0.21618682 0
0.88879091 -0.16704601 -0.27654913 0
0.87933695 -0.23889232 -0.49158663 0
0.87396932 -0.27577382 -0.7022683 0
0.80120468 -0.91453964 -1.0389338 0
-0.12321796 0.049733438 0.88452679 0
0.70140135 -1.5522681 0.64843673 0
0.079916857 1.0512469 0.75464964 0
0.55926698 1.1706202 0.64515668 0
-0.27763832 -0.69704413 0.41292539 0
0.48369467 0.70152283 0.41681233 0
0.4991917 0.80616993 0.24034013 0
0.68071342 1.9547833 0.21125032 0
0.88237166 0.09424945 -0.23654179 0
0.88094693 0.094172217 -0.43464488 0
0.87180305 0.025050838 -0.64562607 0
0.76411915 -0.90053356 -1.0366765 0
-0.16670695 0.046428077 0.88413161 0
0.68873107 -1.2554874 0.66786331 0
0.042533748 1.058921 0.75486696 0
0.52263939 1.1785022 0.64554238 0
-0.32506853 -0.70561123 0.41159782 0
0.44056162 0.68021268 0.41424736 0
0.43317145 0.64173734 0.22017118 0
0.6539681 2.0052261 0.21763991 0
0.864685 0.29528069 -0.20592363 0
0.87642133 0.40624031 -0.38139504 0
0.8574751 0.25618595 -0.6023218 0
0.71337789 -0.94791454 -1.0473195 0
-0.21107684 0.039384399 0.88352507 0
0.67893672 -0.95284444 0.68766642 0
0.0043536988 1.0628289 0.75480217 0
0.35826722 0.41772056 0.58151126 0
-0.37012035 -0.70229626 0.41132468 0
0.35317466 0.39406577 0.38472599 0
0.38809714 0.61088109 0.21594933 0
0.62464255 2.0381458 0.22160676 0
0.86065042 0.59636778 -0.15983015 0
0.86962843 0.6810115 -0.33457258 0
0.85482734 0.56920683 -0.54344261 0
0.61783063 -1.3586597 -1.1335597 0
-0.2475573 0.04101688 0.88341212 0
0.67436868 -0.67682296 0.70572597 0
-0.032679863 1.0462279 0.75329924 0
0.2829439 0.179731 0.56128985 0
-0.4076671 -0.69431132 0.41154194 0
0.32006663 0.40565863 0.38552794 0
0.35334527 0.60864049 0.21521075 0
0.59669709 2.0488498 0.22258563 0
0.85809267 0.84762269 -0.1213735 0
0.86752802 0.93349797 -0.29150826 0
0.86061639 0.887272 -0.48349774 0
0.84294987 0.75682986 -0.69431859 0
-0.29375795 0.026487455 0.88238305 0
0.66414809 -0.4100146 0.72316146 0
-0.068802603 1.0601627 0.75393701 0
0.19100142 -0.10989644 0.5366661 0
-0.46888888 -0.76464468 0.40459171 0
0.27284458 0.36931118 0.38137287 0
0.30959409 0.58790463 0.21216172 0
0.56636256 2.0741379 0.22547428 0
0.85178381 1.0994654 -0.082894243 0
0.86072212 1.178745 -0.24977162 0
0.85709476 1.1590874 -0.43243766 0
0.85016012 1.1152278 -0.62052083 0
-0.33142844 0.051137879 0.88346386 0
0.65351325 -0.16110104 0.73941439 0
-0.10918377 1.0547496 0.75316799 0
-0.25632042 0.39826044 0.50899875 0
0.26739964 0.57712489 0.2102847 0
0.53342444 2.0839119 0.22621116 0
0.84366697 1.3237773 -0.04867566 0
0.84869707 1.3711382 -0.21715616 0
0.85916692 1.4580638 -0.37619644 0
0.85223812 1.4151802 -0.55886406 0
-0.36705363 0.057059165 0.8835606 0
0.64812392 0.069141209 0.75445044 0
-0.14429082 1.0482898 0.75236809 0
-0.25311226 0.57106924 0.52412093 0
-0.27549922 -2.2478187 0.11385181 0
0.19789626 0.38372108 0.18658869 0
0.50533223 2.0929418 0.22691894 0
0.83826917 1.5179422 -0.019050293 0
0.84127903 1.549123 -0.18694192 0
0.83555722 1.514739 -0.36599439 0
0.83640075 1.5299239 -0.53564197 0
-0.40048552 0.09947405 0.88558763 0
0.63760632 0.29416507 0.7691223 0
-0.18168308 1.0567868 0.75258243 0
-0.28511471 0.61102939 0.52715433 0
-0.33216932 -2.277977 0.11015406 0
-0.31801391 -2.1933532 -0.12304299 0
0.47248998 2.1029356 0.22765435 0
0.82771772 1.7029433 0.0090805525 0
0.83897066 1.7921776 -0.14557305 0
0.79308683 1.4709537 -0.37505019 0
0.8279025 1.7287805 -0.4950192 0
1.0727742 -0.11538972 -1.0698775 0
0.62477279 0.49145305 0.7819652 0
-0.22267182 1.0498765 0.75167227 0
-0.32455885 0.6180988 0.52720183 0
0.86283296 -1.9393104 0.23159038 0
-0.37733272 -2.2453158 0.11283924 0
-0.36654025 -2.1803155 -0.1222846 0
0.44006509 2.1149948 0.22865768 0
0.82220632 1.9219339 -0.12377743 0
0.82279086 1.9411411 -0.45157725 0
1.0313259 -0.10944851 -1.0691816 0
0.60729599 0.64721525 0.79207212 0
-0.26097918 1.0547771 0.75160462 0
-0.3672047 0.61174554 0.52602017 0
0.84479415 -1.6373799 0.26022071 0
-0.12854786 -0.68021935 0.27184916 0
-0.092854813 -0.48755896 0.080059499 0
0.40695906 2.1232748 0.22912292 0
0.79970771 1.9984514 0.053789966 0
0.8121103 2.0906935 -0.095243268 0
0.82729346 2.2005703 -0.23742113 0
0.82663655 2.2037945 -0.39764157 0
0.99050689 -0.09753184 -1.0671748 0
0.58755732 0.74292719 0.7982443 0
-0.30094436 1.0294431 0.74940002 0
0.77784908 -1.9007539 0.46899676 0
-0.56424451 -2.72314 0.31477597 0
-0.4076184 0.59066254 0.52357876 0
0.83908141 -1.3025256 0.29200619 0
-0.1656442 -0.67104375 0.27226818 0
-0.12173883 -0.43951365 0.085191518 0
0.38170376 2.1463079 0.23170826 0
0.78971934 2.129813 0.07367935 0
0.79827523 2.1943641 -0.077872694 0
0.80412716 2.239748 -0.23057613 0
0.80929822 2.2815938 -0.38212046 0
0.95404613 -0.10161755 -1.0687027 0
0.55871719 0.8118723 0.80262858 0
-0.3398262 1.0326996 0.7491917 0
0.7613346 -1.6042131 0.49190331 0
-0.39523682 -1.6045896 0.40828103 0
-0.48076299 0.46078381 0.51117122 0
0.82647413 -0.99082643 0.32155228 0
-0.20816749 -0.65661395 0.27312157 0
-0.13435638 -0.27915376 0.10369818 0
0.34717894 2.1470251 0.23109773 0
0.76471132 2.1895704 0.082371324 0
0.78459048 2.3260255 -0.055758033 0
0.79146212 2.3768208 -0.20516863 0
0.80031937 2.441432 -0.34961066 0
0.91266954 -0.095243648 -1.0680087 0
1.0253527 0.94391882 -1.0154649 0
0.5216915 0.82568061 0.80337709 0
-0.38064045 1.0283585 0.74842143 0
0.74563712 -1.3196201 0.51387334 0
0.09994629 1.0832157 0.63386881 0
-0.84266269 -0.82687175 0.39372453 0
0.80855954 -0.74647677 0.3446666 0
-0.25733295 -0.67518944 0.27058616 0
0.31145397 2.1420457 0.22968124 0
0.73858398 2.2396247 0.089544386 0
0.75372875 2.3427718 -0.053539105 0
0.76476777 2.4187403 -0.19793063 0
0.78393507 2.5470397 -0.32841626 0
0.87000239 -0.1003529 -1.0699375 0
0.98737431 0.94615483 -1.0157014 0
0.49146241 0.84662944 0.80461073 0
-0.41713718 1.0189615 0.74734026 0
0.7418766 -1.0061179 0.53809631 0
0.07443057 1.1209575 0.63668364 0
-0.94870675 -1.087881 0.36939245 0
0.80109102 -0.48111698 0.36980742 0
-0.29519498 -0.66951138 0.27060494 0
0.20630175 1.7715937 0.34889436 0
0.28364134 2.1517539 0.23038469 0
0.71310264 2.2616725 0.092442401 0
0.72449458 2.3394165 -0.054719906 0
0.7603395 2.5745742 -0.3234067 0
0.83616805 -0.080789648 -1.0662224 0
0.95614439 0.95949262 -1.0131559 0
0.62654608 -1.6026094 0.72172904 0
0.45623338 0.87052387 0.80600536 0
-0.46451625 0.98979944 0.74474657 0
0.72838068 -0.73751611 0.55881059 0
0.035669353 1.1208451 0.63624215 0
0.788562 -0.22104913 0.39440832 0
-0.34336779 -0.68188697 0.26866746 0
0.17115577 1.7768465 0.34886214 0
0.24826203 2.1489632 0.22923622 0
0.68369234 2.2884588 0.095973678 0
0.69440269 2.3602622 -0.051828533 0
0.72098148 2.5272646 -0.17867081 0
0.73205632 2.6009784 -0.31877524 0
0.79442209 -0.077860966 -1.0664046 0
0.91844296 0.96391308 -1.0129246 0
1.0221938 1.8367034 -0.96636003 0
0.6203652 -1.2640175 0.74190068 0
0.41719404 0.87091625 0.80584335 0
-0.50562876 0.98595136 0.74397653 0
0.71610332 -0.47492027 0.57905149 0
0.00062311039 1.1384245 0.63727832 0
-0.65059698 0.43160746 0.50589687 0
0.77743322 0.034998335 0.41861993 0
-0.38833988 -0.67849958 0.26832324 0
0.13809668 1.791942 0.34999886 0
0.21656491 2.1637528 0.23050293 0
0.65183318 2.2997441 0.097078651 0
0.68966991 2.5364339 -0.17773914 0
0.70231843 2.6178155 -0.31616384 0
0.75147748 -0.084462583 -1.0687717 0
0.8800385 0.96268463 -1.0141011 0
0.98603201 1.8274277 -0.96965659 0
0.61577624 -0.98380291 0.75858653 0
0.38626307 0.88626403 0.80668509 0
-0.54244006 0.97699451 0.74289584 0
0.70948648 -0.23096009 0.59786117 0
-0.034100238 1.1316048 0.6363126 0
-0.6825546 0.44817719 0.50678849 0
0.76965797 0.25666577 0.43957874 0
-0.42707524 -0.6762957 0.26794246 0
0.11006759 1.8060809 0.35110608 0
0.18507895 2.1563184 0.22878952 0
0.62639034 2.320085 0.099670261 0
0.65226507 2.4772384 -0.03293591 0
0.67819214 2.6397738 -0.31236935 0
0.71711594 -0.070354365 -1.0663699 0
0.84847027 0.97248995 -1.0124964 0
0.95791286 1.8426352 -0.96646935 0
0.60769939 -0.69495666 0.77577263 0
0.34827268 0.89281839 0.80691057 0
-0.58934778 0.95225191 0.74058408 0
0.69927293 0.019617191 0.61715764 0
-0.078483276 1.1066027 0.63373601 0
0.75787634 0.48097441 0.46075165 0
-0.47678202 -0.69397014 0.26540729 0
0.073315822 1.803932 0.35013649 0
0.15217987 2.1655231 0.22924998 0
0.59332144 2.3237846 0.099561438 0
0.61738932 2.4672515 -0.035440449 0
0.63446385 2.5697968 -0.1729413 0
0.64528561 2.6375027 -0.3137967 0
0.67386669 -0.078598201 -1.0691746 0
0.81031126 0.97344983 -1.0132051 0
0.92294312 1.8432052 -0.9672612 0
1.0124718 2.5340245 -0.94003803 0
0.59828138 -0.43194506 0.7914083 0
0.31100827 0.90344083 0.80739433 0
0.68664771 0.23848779 0.63398647 0
-0.11216983 1.1304141 0.63526267 0
-0.27778113 0.3973026 0.37652501 0
0.041308153 1.8232439 0.35173833 0
0.12062515 2.1806474 0.23051453 0
0.56409365 2.3490126 0.1027848 0
0.59181237 2.5097971 -0.028849289 0
0.59571546 2.536716 -0.1801617 0
0.62099421 2.6835573 -0.30513388 0
0.63471019 -0.055728953 -1.0649911 0
0.77526242 0.9976725 -1.0082847 0
0.88822097 1.8458244 -0.96755248 0
0.98157346 2.545872 -0.93771446 0
0.59458643 -0.1856696 0.80605006 0
0.27956882 0.91517687 0.8079747 0
0.68180072 0.46047711 0.65107775 0
-0.21608464 0.82078844 0.60870159 0
-0.60431343 1.1759369 0.57098258 0
0.72729266 0.80240291 0.49097255 0
-0.3039186 0.4399184 0.38030273 0
0.012576593 1.8337958 0.35237572 0
0.085967444 2.1600199 0.22692278 0
0.5361315 2.3540413 0.10294999 0
0.56506449 2.5186141 -0.028013419 0
0.59373534 2.6864696 -0.3053785 0
0.81801397 1.5344559 -0.70664221 0
0.76222444 1.1406877 -0.97431535 0
0.85974985 1.8574871 -0.96536934 0
0.95503289 2.555295 -0.93595135 0
0.5823943 0.0316757 0.81894541 0
0.23949985 0.91034764 0.80742157 0
0.66391128 0.61997157 0.66328424 0
-0.30511102 0.61011124 0.59038508 0
-0.63589358 1.2053084 0.57293832 0
0.71869332 1.0186684 0.51136422 0
-0.32018369 0.54980904 0.39087588 0
-0.022380859 1.8397665 0.35233968 0
0.056683633 2.1850276 0.22952731 0
0.50316727 2.3580751 0.10283925 0
0.53306681 2.5244818 -0.02782481 0
0.53571439 2.5436258 -0.18055257 0
0.56199718 2.6902983 -0.30559713 0
0.81419098 1.7635474 -0.65576887 0
0.81614053 1.7868247 -0.81790149 0
0.82615668 1.8680074 -0.96365815 0
0.92453611 2.5692542 -0.933097 0
0.56664211 0.21338487 0.82970494 0
0.19788475 0.89782995 0.80635095 0
0.66084808 0.87418598 0.68284535 0
-0.33588555 0.65412027 0.59355956 0
-0.6683777 1.2309401 0.57454246 0
0.71479148 1.2565316 0.53381789 0
-0.35802856 0.56475604 0.3916966 0
-0.059145208 1.8381342 0.35136834 0
0.019371258 2.1754053 0.22730364 0
0.47205546 2.3719428 0.10424227 0
0.50403595 2.5459604 -0.024942858 0
0.50601393 2.5611825 -0.17814314 0
0.53209734 2.703867 -0.30379865 0
0.7993831 1.9056231 -0.62455553 0
0.80836678 1.976456 -0.7726683 0
0.80547243 1.9667848 -0.93890822 0
0.8924554 2.5718744 -0.93343717 0
0.54547697 0.3496325 0.83774072 0
0.16448082 0.92858899 0.80812532 0
0.64209664 1.009922 0.69319481 0
-0.3826037 0.63036162 0.59099376 0
-0.69194478 1.287324 0.5789451 0
0.68983859 1.3406557 0.54157168 0
-0.39348066 0.58951366 0.39351073 0
-0.09641318 1.8347136 0.35016307 0
-0.012960713 2.1871364 0.22802931 0
0.44215134 2.3917418 0.10655284 0
0.47063783 2.5443096 -0.026102582 0
0.47679466 2.5807681 -0.17536443 0
0.50040925 2.7079246 -0.30401835 0
0.7899186 2.0766342 -0.58679974 0
0.79420859 2.1140993 -0.74010569 0
0.7789079 2.0215421 -0.92568171 0
0.86066294 2.5765202 -0.93324542 0
0.52644974 0.45542291 0.84396595 0
0.126664 0.90747768 0.80650526 0
0.61678284 1.0600721 0.69691437 0
-0.43100247 0.57639527 0.58593804 0
-0.45278174 0.49119702 0.38276437 0
-0.12739655 1.8360335 0.34963053 0
-0.044704519 2.1804991 0.22631465 0
0.41470617 2.3990927 0.10701853 0
0.44710422 2.5689707 -0.022575736 0
0.45526913 2.6149881 -0.16965139 0
0.47320023 2.7112212 -0.30426478 0
0.78934306 2.2661703 -0.54471439 0
0.77402139 2.1741266 -0.72633439 0
0.75402069 2.0526733 -0.91849637 0
0.83342576 2.5805943 -0.93308145 0
0.49329954 0.50289887 0.84668106 0
0.090712503 0.92476743 0.80737287 0
0.57759595 1.0539539 0.69621927 0
-0.53021955 0.34208545 0.56551176 0
0.51857018 0.68187743 0.47797585 0
-0.50030768 0.46797103 0.37960815 0
-0.16522618 1.8309532 0.34819129 0
-0.079365239 2.1828372 0.22569905 0
0.3822695 2.4055152 0.10720798 0
0.37684107 2.3839202 -0.055716533 0
0.42362726 2.6212542 -0.16946658 0
0.44268551 2.7212586 -0.30327529 0
0.77660495 2.4004083 -0.5152685 0
0.76058829 2.305995 -0.69518906 0
0.71403933 2.0176573 -0.92880946 0
0.80106902 2.5816469 -0.93395495 0
0.46420866 0.53775424 0.8486526 0
0.055483889 0.91761434 0.80665749 0
0.53869915 1.0156282 0.69304055 0
0.56107301 1.1649486 0.52390802 0
-0.53079998 0.4898738 0.38119122 0
-0.195297 1.8363539 0.34812516 0
-0.11458007 2.162972 0.22210813 0
0.35527632 2.414989 0.10797521 0
0.38488677 2.5653102 -0.024923949 0
0.394557 2.6170895 -0.17115954 0
0.41864443 2.7400923 -0.30029571 0
0.76509368 2.506911 -0.49196705 0
0.76619416 2.5215893 -0.64344853 0
0.68016165 1.9916019 -0.93664712 0
0.77536994 2.5954278 -0.93113154 0
0.42621645 0.55190897 0.84935904 0
0.01639501 0.91951805 0.80649018 0
0.50820124 1.0649254 0.69663477 0
-0.62501627 0.27946061 0.55905145 0
0.5508818 1.3359509 0.53993458 0
-0.41749427 1.1016136 0.44341928 0
-0.232728 1.8334702 0.34691912 0
-0.14495248 2.1828647 0.22390382 0
0.32128868 2.4138875 0.10695288 0
0.3574782 2.5930691 -0.021036746 0
0.37013215 2.6582131 -0.16431332 0
0.38586566 2.7388179 -0.30172771 0
0.73085797 2.4985499 -0.49483085 0
0.74079466 2.5670004 -0.63341254 0
0.64312023 1.9779197 -0.94145077 0
0.74086308 2.5833781 -0.93572992 0
0.39026371 0.578017 0.85077161 0
-0.021058708 0.9293803 0.80683899 0
0.47184488 1.0769302 0.697317 0
-0.6413545 0.38237238 0.56713831 0
0.35352206 0.3715409 0.44722196 0
-0.45220208 1.1207387 0.44462219 0
-0.26773229 1.8403519 0.34687996 0
-0.18213899 2.1759899 0.22194755 0
0.29013547 2.4264543 0.10804848 0
0.3220773 2.582339 -0.023881407 0
0.32723814 2.6109536 -0.17449306 0
0.35346064 2.7395844 -0.30275658 0
0.71442747 2.6048102 -0.6252538 0
0.59414291 1.8937215 -0.96477729 0
0.71038675 2.5961847 -0.93341273 0
0.35581329 0.61211723 0.8526538 0
-0.063503079 0.91596258 0.80563802 0
0.43455413 1.083167 0.69753903 0
-0.6640358 0.45825708 0.57292843 0
0.30365586 0.31931761 0.44181713 0
-0.55479878 0.88006371 0.41900527 0
-0.30472985 1.839677 0.34590656 0
-0.21539079 2.1846042 0.22213428 0
0.25988302 2.4429965 0.10974844 0
0.29197738 2.5968056 -0.022351714 0
0.30014277 2.6388228 -0.17023936 0
0.32186449 2.7443054 -0.30297932 0
0.68349326 2.6072886 -0.47219333 0
0.6863541 2.6311972 -0.61990964 0
0.56051999 1.9032806 -0.96357203 0
0.67770892 2.5957959 -0.93481976 0
0.32170743 0.61388916 0.85261691 0
-0.096397944 0.92103469 0.80569643 0
0.40566519 1.1063055 0.69910622 0
-0.70202005 0.45174825 0.57180882 0
-0.34090671 1.8224814 0.3430385 0
-0.25047094 2.1671798 0.21881174 0
0.22756825 2.427736 0.10658036 0
0.26184452 2.5892043 -0.024549896 0
0.271413 2.6369934 -0.17156321 0
0.2926333 2.7386029 -0.3052443 0
0.65501076 2.6042371 -0.47377738 0
0.66128641 2.6473188 -0.61693674 0
0.53017277 1.9025778 -0.96489942 0
0.64887756 2.5909483 -0.93731785 0
0.28445345 0.63051373 0.85343665 0
-0.13685437 0.91766715 0.80514055 0
0.36744225 1.1068935 0.69886762 0
-0.74057937 0.47016037 0.37511599 0
-0.37390685 1.8374375 0.34393159 0
-0.28426963 2.1741304 0.21872994 0
0.20039454 2.4580011 0.11039646 0
0.23139375 2.6019552 -0.023357887 0
0.23942541 2.6420152 -0.17175148 0
0.26144749 2.745461 -0.30506471 0
0.62845427 2.6385896 -0.46704516 0
0.63044864 2.6566474 -0.61581278 0
0.49932322 1.9276186 -0.95969141 0
0.61952341 2.6097729 -0.93340671 0
0.24587989 0.63940889 0.85378462 0
-0.1782456 0.91056389 0.80432636 0
0.3270762 1.0958494 0.69771087 0
-0.41206059 1.8333466 0.34249094 0
-0.32013744 2.1735587 0.21757638 0
0.16599129 2.4555681 0.10906931 0
0.20101106 2.6148133 -0.022166718 0
0.20875345 2.6529057 -0.17083035 0
0.22985351 2.7505224 -0.30528873 0
0.58609807 2.5846784 -0.48038259 0
0.6034807 2.687129 -0.6095348 0
0.4648262 1.9318035 -0.95998996 0
0.58959693 2.624903 -0.93056053 0
0.21362098 0.65135187 0.85433435 0
-0.21340735 0.90627474 0.80373901 0
0.29337081 1.0918345 0.69713449 0
-0.63514841 1.1336056 0.62789029 0
-0.41894591 -2.7780924 0.14297228 0
-0.83722097 0.40569744 0.36678979 0
-0.45063353 1.808901 0.33869019 0
-0.35339996 2.1641757 0.21532534 0
0.13393725 2.44258 0.10620347 0
0.16725947 2.5921583 -0.027056012 0
0.1791067 2.6475501 -0.17289494 0
0.20140126 2.7489545 -0.30674806 0
0.55569208 2.5723503 -0.48414817 0
0.5744682 2.680546 -0.61218739 0
0.438032 1.9504529 -0.95631444 0
0.56040722 2.6184547 -0.93359137 0
0.1736674 0.65265429 0.85421026 0
-0.2522268 0.91113842 0.80369812 0
0.25797242 1.1085248 0.69811821 0
-0.66254789 1.1784478 0.63103956 0
-0.88876909 0.3745681 0.3626439 0
-0.5007748 1.7630367 0.33211905 0
-0.38669378 2.1734171 0.21551004 0
0.10526118 2.4654319 0.10880718 0
0.13643175 2.6033235 -0.026201995 0
0.15027221 2.6663115 -0.17049553 0
0.16668254 2.7408876 -0.30979419 0
0.54775727 2.7112024 -0.60591179 0
0.40432447 1.9586705 -0.95561343 0
0.52986151 2.6300001 -0.93181002 0
0.1359458 0.66587287 0.85479116 0
-0.29426411 0.90255362 0.8027547 0
0.21855196 1.1037933 0.6974194 0
-0.70000267 1.1869215 0.63108033 0
-0.92481339 0.39918846 0.36425343 0
-0.54802853 1.7288783 0.32694849 0
-0.42483148 2.1656232 0.21328506 0
0.07261283 2.4710643 0.10868847 0
0.10520317 2.6126788 -0.025684983 0
0.11518294 2.6583965 -0.17327464 0
0.13233218 2.7348661 -0.31243733 0
0.50244492 2.6379163 -0.4715623 0
0.5124318 2.6961148 -0.61088139 0
0.36589366 1.9422908 -0.96141762 0
0.4982844 2.6359737 -0.93162459 0
0.10192761 0.66835076 0.85475105 0
-0.33050534 0.89477599 0.80190927 0
0.1881953 1.117756 0.69821757 0
-0.34096462 -1.5952978 0.2548216 0
-0.68011457 1.37863 0.46502995 0
-0.61307234 1.6152329 0.31219286 0
-0.45610636 2.1642375 0.21210444 0
0.041795488 2.4641821 0.10672925 0
0.074377678 2.6038115 -0.028220259 0
0.084973231 2.6514533 -0.17570947 0
0.10972342 2.7583795 -0.30865839 0
0.48363826 2.6852686 -0.46180946 0
0.48631525 2.705106 -0.60978705 0
0.33964434 1.9631242 -0.95724392 0
0.47234842 2.6468627 -0.92987108 0
0.063915841 0.67986679 0.85521287 0
-0.36893308 0.90201724 0.80199605 0
0.1471779 1.1054701 0.69690716 0
-0.23111385 -0.79506749 0.331137 0
-0.70515144 1.4272935 0.46919635 0
-0.68507314 1.4995731 0.29700285 0
-0.49550354 2.1529264 0.20934419 0
0.0095999772 2.4719715 0.10691208 0
0.039881922 2.599987 -0.030057384 0
0.054870676 2.6648026 -0.17442136 0
0.073481455 2.7449787 -0.31291392 0
0.45187628 2.6895092 -0.46206197 0
0.45538983 2.7131538 -0.60913545 0
0.30638301 1.9735978 -0.95604444 0
0.4393225 2.6454847 -0.93181342 0
0.027146686 0.69738913 0.85602611 0
-0.41070554 0.89584208 0.80118102 0
0.1123638 1.1246243 0.69804037 0
-0.26696905 -0.74526602 0.33533654 0
-0.7343806 1.4607388 0.4717738 0
-0.71517199 1.5290859 0.29952961 0
-0.54007602 2.1246743 0.20417625 0
-0.026383134 2.4645288 0.10467653 0
0.0034265374 2.5886467 -0.033239182 0
0.019616731 2.6572769 -0.17720072 0
0.039953891 2.7431343 -0.31475183 0
0.42323169 2.7091687 -0.45882693 0
0.42605051 2.7289355 -0.60661137 0
0.27124369 1.9747012 -0.95734692 0
0.40818745 2.6536794 -0.93109787 0
-0.015558425 0.6857065 0.85507721 0
-0.45499519 0.88015753 0.79972243 0
0.075250372 1.1321783 0.69825637 0
-0.34789091 -0.91573864 0.31832671 0
-0.71887499 1.6462198 0.31277379 0
-0.57749534 2.1213107 0.20248669 0
-0.058092821 2.4744847 0.10516063 0
-0.024447031 2.6118639 -0.03037112 0
-0.011385492 2.6670449 -0.17665319 0
0.012628726 2.7661111 -0.31135288 0
0.39035672 2.7078996 -0.46038872 0
0.3971985 2.7467203 -0.60361981 0
0.23962525 1.9930043 -0.95414811 0
0.37748104 2.6638751 -0.92985147 0
-0.051203106 0.68085378 0.85456568 0
-0.49843743 0.84586471 0.79707563 0
0.039786518 1.1211935 0.6970672 0
-0.39834404 -0.96629316 0.31291959 0
-0.87249857 1.2444358 0.44755492 0
-0.74500954 1.6685942 0.31456953 0
-0.60559356 2.1318247 0.20291078 0
-0.091538928 2.4584837 0.10169025 0
-0.057446539 2.5958173 -0.0342509 0
-0.041756019 2.6605453 -0.17908861 0
-0.016446935 2.7633736 -0.31321675 0
0.33621961 2.58357 -0.4898774 0
0.36929375 2.7465487 -0.60486948 0
0.20656866 1.9800832 -0.9589808 0
0.3529059 2.6807866 -0.92650598 0
-0.092022769 0.67924941 0.85420352 0
-0.54308093 0.83054525 0.79561806 0
-0.0014933634 1.1095082 0.69575626 0
-0.4348118 -0.91791368 0.31693086 0
-0.92317438 1.2099298 0.44299755 0
-0.78128439 1.6754798 0.31429496 0
-0.64831275 2.1116762 0.19881375 0
-0.12176595 2.4744155 0.10307983 0
-0.08866106 2.605875 -0.033736572 0
-0.075700544 2.659121 -0.1807595 0
-0.048032958 2.7694683 -0.31344479 0
0.30079028 2.5730865 -0.49361673 0
0.33488214 2.7379086 -0.60843492 0
0.17667113 2.0061793 -0.95378304 0
0.31868514 2.6742127 -0.93004447 0
-0.12992357 0.69146109 0.85466206 0
-0.037393801 1.1233257 0.69642884 0
-0.4874236 -0.94532329 0.31362513 0
-0.96382672 1.2120961 0.25625741 0
-0.69769222 2.0708988 0.19177574 0
-0.15493099 2.4789796 0.10265601 0
-0.12284915 2.6046054 -0.035238702 0
-0.11118945 2.652128 -0.18353939 0
-0.082604192 2.7643154 -0.31608966 0
0.27107823 2.5894477 -0.4912535 0
0.30286905 2.7408042 -0.60919112 0
0.14115904 2.0058842 -0.95558763 0
0.28521508 2.6715424 -0.93252015 0
-0.16481429 0.69089407 0.85438448 0
-0.068781696 1.1322097 0.69676483 0
-0.56727445 -1.1255958 0.29565683 0
-0.72890145 2.0723317 0.19086254 0
-0.18758245 2.4671659 0.099789888 0
-0.1500034 2.6117883 -0.035086762 0
-0.15392652 2.6004038 -0.19484316 0
-0.10975975 2.7694726 -0.31634319 0
0.2413501 2.5839484 -0.49371186 0
0.28076944 2.7675197 -0.60388732 0
0.11213324 2.0122209 -0.95542032 0
0.2628687 2.6981306 -0.92651927 0
-0.21136835 0.66440046 0.85249734 0
-0.10543032 1.1423738 0.69713056 0
-0.28259885 0.35725623 0.43802431 0
-0.77877182 2.0319588 0.18382625 0
-0.22338517 2.4624374 0.097855479 0
-0.18113901 2.6221788 -0.034574177 0
-0.18510297 2.6107998 -0.19429682 0
-0.14339451 2.7683513 -0.31818306 0
0.20874314 2.5871813 -0.49440077 0
0.24841212 2.7687235 -0.60511285 0
0.079146445 2.0235076 -0.95422572 0
0.23239131 2.7088439 -0.92527652 0
-0.25016844 0.67314732 0.85271996 0
-0.16063806 1.0710057 0.69109297 0
-0.30614594 0.43808797 0.44518855 0
-0.25820571 2.4616666 0.096524946 0
-0.21745768 2.6136706 -0.037421003 0
-0.2141483 2.6288869 -0.19227336 0
-0.17758782 2.7654731 -0.32042587 0
0.17700551 2.5943427 -0.49421862 0
0.21343403 2.7586765 -0.60914743 0
0.043186773 2.0216999 -0.95653147 0
0.20110507 2.7159081 -0.92509699 0
-0.28789416 0.66130382 0.85173899 0
-0.27389604 0.72665262 0.66368949 0
-0.31364354 0.56032717 0.45643967 0
-0.29058063 2.4521356 0.093960918 0
-0.24458306 2.6211503 -0.037270345 0
-0.26073736 2.5662928 -0.20579085 0
-0.20423315 2.7728209 -0.3202779 0
0.14849824 2.5948703 -0.49537012 0
0.18632868 2.762897 -0.60946268 0
0.016403794 2.037775 -0.953866 0
0.17343532 2.7182975 -0.92600602 0
-0.32853115 0.66255635 0.85149235 0
-0.28007746 0.87345695 0.67472816 0
-0.3382366 0.631468 0.46265894 0
-0.32550296 2.4516284 0.092630096 0
-0.27994961 2.6167021 -0.039445765 0
-0.30965021 2.5146523 -0.21743415 0
-0.2384866 2.7701883 -0.32252106 0
0.1571499 2.7732303 -0.45597783 0
0.1516608 2.7549973 -0.61302942 0
-0.020458188 2.0324423 -0.95717239 0
0.13996542 2.7161961 -0.92848372 0
-0.37521917 0.63871866 0.84972364 0
-0.33200693 0.82426095 0.67037499 0
-0.37761432 0.63873363 0.46269336 0
-0.35937387 2.4550607 0.091902733 0
-0.31918004 2.5991292 -0.043971602 0
-0.32000449 2.5993056 -0.20248441 0
-0.27494943 2.7601593 -0.32637453 0
0.12518312 2.7767851 -0.45667225 0
0.11963226 2.7585824 -0.61378801 0
-0.051054936 2.0536175 -0.9534812 0
0.11005878 2.7292225 -0.9267121 0
-0.41881973 0.62866384 0.84877455 0
-0.37492156 0.81406504 0.66906929 0
-0.42590022 0.6093809 0.45916882 0
-0.3904981 2.4681177 0.092684016 0
-0.3536247 2.5987694 -0.045475405 0
-0.3681429 2.5517833 -0.21338834 0
0.091828607 2.7747698 -0.45867378 0
0.086220771 2.7566209 -0.61595076 0
-0.084740311 2.0617242 -0.95328975 0
0.083422944 2.7554662 -0.92122298 0
-0.46077335 0.60190576 0.8468582 0
-0.3510088 1.0525 0.6873737 0
-0.50597173 0.42805406 0.44100845 0
-0.42810601 2.4419973 0.087403663 0
-0.37968498 2.610461 -0.044654649 0
-0.39989251 2.5446458 -0.21619216 0
0.064744428 2.7793741 -0.45895839 0
0.054882295 2.7442589 -0.62047857 0
-0.11033384 2.0819294 -0.94962746 0
0.055825036 2.7582378 -0.92213404 0
-0.51093155 0.56701541 0.8443895 0
-0.41594601 0.95147437 0.67890888 0
-0.45981547 2.4534035 0.087882303 0
-0.41302714 2.614121 -0.045488004 0
-0.41046855 2.625632 -0.20198707 0
0.033236347 2.7851701 -0.45921835 0
0.024670217 2.7557518 -0.61936653 0
-0.14674702 2.0789843 -0.95243615 0
0.019548655 2.7453787 -0.92780012 0
-0.5441941 0.60008305 0.84601325 0
-0.47184408 0.88944715 0.67349136 0
-0.91804916 -0.86260712 0.314372 0
-0.50631714 2.4157069 0.080516107 0
-0.45548725 2.5877068 -0.051691595 0
-0.45455837 2.5936706 -0.20993613 0
-0.0025968349 2.7740591 -0.46339825 0
-0.0088496292 2.7541625 -0.62153018 0
-0.17985985 2.089318 -0.95174688 0
-0.0020610578 2.7905874 -0.9170031 0
-0.50091612 0.91126907 0.67473966 0
-0.6519345 0.32921571 0.42929691 0
-0.53521782 2.4203155 0.080064215 0
-0.49592629 2.5525606 -0.059261408 0
-0.47772688 2.6150517 -0.20720379 0
-0.032143101 2.7695146 -0.46586117 0
-0.033095382 2.7703879 -0.61904091 0
-0.20716798 2.1022878 -0.95008606 0
-0.032484777 2.782438 -0.92110199 0
-0.54888284 0.88248086 0.67191041 0
-0.66981173 0.42433915 0.43775374 0
-0.58216166 2.3829937 0.07269942 0
-0.57553756 2.4078515 -0.0866023 0
-0.51226521 2.6153471 -0.20887725 0
-0.074596852 2.7341287 -0.47570124 0
-0.070078872 2.7558608 -0.62447971 0
-0.23870733 2.118459 -0.94789922 0
-0.066927768 2.7774174 -0.92464465 0
-0.54192442 1.0620942 0.68550485 0
-0.69978726 0.47132826 0.4415299 0
-0.61819381 2.3817482 0.07106626 0
-0.59614962 2.4555299 -0.079716362 0
-0.12035048 2.6876235 -0.4881523 0
-0.10119477 2.7640398 -0.62430537 0
-0.27464628 2.1178956 -0.95020998 0
-0.57703227 1.0590594 0.68477148 0
-0.65678424 2.35656 0.06578894 0
-0.61365324 2.4961538 -0.073863916 0
-0.16602956 2.6250501 -0.5041098 0
-0.12986611 2.7636321 -0.62602723 0
-0.30785754 2.108711 -0.95454568 0
-0.617001 1.0595188 0.68421984 0
-0.69721323 2.3424325 0.062044948 0
-0.6661911 2.4425049 -0.085095473 0
-0.19865528 2.6298189 -0.50480425 0
-0.16916135 2.7420197 -0.63333619 0
-0.65859592 1.0543673 0.68321186 0
-0.73168033 2.3472874 0.061316274 0
-0.70698196 2.4266288 -0.089617185 0
-0.22866878 2.6441162 -0.50332296 0
-0.20500617 2.7336984 -0.63737142 0
-0.68364459 1.0882232 0.68536448 0
-0.65318012 1.2015074 0.50963163 0
-0.78244066 2.2868757 0.050312549 0
-0.66772193 1.2904037 0.51749688 0
-0.69761437 1.3237748 0.5199402 0
-0.72490048 1.3461641 0.52141953 0
0.85135108 -1.9054352 0.31416652 0
0.84093511 -1.5339749 0.34721094 0
0.74718964 -1.9816462 0.54259014 0
0.82412434 -1.2477964 0.37262863 0
0.73547244 -1.6432732 0.56672448 0
0.80939263 -0.96166831 0.39803302 0
0.73076493 -1.323581 0.589526 0
0.79960942 -0.70600337 0.4207325 0
0.71651953 -1.0468317 0.60923481 0
0.78738147 -0.43187672 0.44505075 0
0.71129459 -0.76496398 0.62931728 0
0.78121054 -0.1743658 0.46790516 0
