# .PCD v0.7 - Point Cloud Data file format
VERSION 0.7
FIELDS x y z
SIZE 4 4 4
TYPE F F F
COUNT 1 1 1
WIDTH 432
HEIGHT 1
VIEWPOINT 0 0 0 1 0 0 0
POINTS 432
DATA ascii
0.91245949 4.1799192 0.46086165
0.98084736 3.2680905 -0.11121567
0.88260591 4.5779638 -0.66365898
-0.50230473 4.7740645 -1.2107859
-0.50146955 4.7472024 -1.7657416
-0.53202116 5.7466331 -2.2424941
0.81266296 3.9360061 0.46395901
0.92892599 2.3057504 -0.11568733
0.76577491 4.5934749 -0.66312116
-0.61604345 4.7467465 -1.2117482
-0.61563557 4.7318759 -1.7664347
-0.64153904 5.6955419 -2.246109
0.69864333 4.1245155 0.46138662
0.77442312 3.0127053 -0.11233826
-0.7143755 4.7521987 -1.2114275
-0.7136749 4.7233481 -1.7667812
-0.73524296 5.6332693 -2.2506275
0.57684004 4.1946015 0.46036291
0.67415243 2.6853585 -0.11383505
-0.82843864 4.7296505 -1.2122294
-0.82821435 4.7187791 -1.7668967
-0.84422547 5.5211053 -2.2589116
0.46164778 4.1653457 0.46065164
0.53498012 2.959187 -0.112516
0.42965853 4.6915016 -0.66043216
-0.9429276 4.7235022 -1.2123898
-0.94243848 4.6946664 -1.7681674
-0.95662558 5.5628748 -2.2555978
0.53318608 1.1842006 1.1175852
0.35972121 4.1933656 0.46020541
0.41694775 3.2006319 -0.11135599
0.33686501 4.5898623 -0.66258335
-1.0408612 4.7020097 -1.2131917
-1.0410422 4.7151155 -1.7668967
-1.0513712 5.5015793 -2.2601166
0.40627202 1.1651045 1.1179552
0.24232882 4.2028379 0.45999542
0.2899884 3.3197403 -0.11076663
-1.1550517 4.6546755 -1.2150362
-1.1548002 4.6298885 -1.7717482
-1.1629956 5.4902678 -2.2608695
0.27793896 1.1724288 1.1175236
0.12553263 4.2027564 0.45991668
0.18261349 3.0678101 -0.11191729
-1.2696348 4.6157522 -1.2165599
-1.269578 4.6069698 -1.7730188
1.587938 3.5749948 -2.2260966
-1.2747104 5.4813585 -2.261472
0.16837919 1.1710922 1.1174002
0.02455163 4.2218623 0.4596017
0.12016651 2.1937466 -0.11598668
0.0026475191 4.6864781 -0.66002882
-1.3678281 4.5093551 -1.2208102
-1.36059 2.3402891 -1.9041243
1.5131292 3.2694907 -2.2468114
-1.3703036 5.4110861 -2.2667437
-0.02859664 2.7610438 1.0681257
-0.09152469 4.2085972 0.45970669
0.036786243 1.2570232 -0.12034608
-0.11016262 4.6373329 -0.6610148
-1.4849774 -0.94043386 -1.4394987
-1.4854963 -2.5217688 -2.1853945
1.3782351 3.4296961 -2.2348552
-1.4823381 5.4787235 -2.2616227
-0.15442863 2.8578467 1.0649805
-0.2078369 4.1997514 0.45975918
-0.22872016 4.7244515 -0.65895325
1.1649961 4.5388508 -1.5971496
1.2523942 3.4970064 -2.2294333
-1.5945252 5.3832355 -2.2688525
-0.27707729 2.8871975 1.0639322
-0.32672286 4.2612796 0.45889297
-0.038944036 -3.7038236 -0.14351824
1.0641352 4.3497319 -0.48123291
-0.34272233 4.7041168 -0.65931177
1.0455787 4.5811143 -1.0358659
1.043819 4.6030583 -1.5933104
1.1380905 3.427573 -2.233604
-0.37974116 2.8436453 1.0651655
-0.42473954 4.2078671 0.45954919
-0.097305298 -5.7190156 -0.15292931
1.0261803 3.5443909 -0.49442706
-0.43987542 4.666748 -0.66007364
0.94414854 4.6092296 -1.0346347
0.94184601 4.6391177 -1.5910275
1.0456072 3.2922165 -2.2425015
-0.49857745 2.7499433 1.0679407
-0.54150426 4.2142344 0.45941794
-0.51224864 3.216284 -0.11109406
0.91487443 3.4317396 -0.49614224
-0.55618852 4.7151361 -0.65890843
0.82665277 4.6344709 -1.0334718
0.8231467 4.6822686 -1.5883296
0.92153692 3.3409085 -2.2384698
-0.58072108 1.1998382 1.1156734
-0.65856731 4.2350225 0.45910296
-0.60184377 2.0233879 -0.11666024
0.79582679 3.4192183 -0.49620822
-0.67115909 4.7259784 -0.65859473
0.71034682 4.646193 -1.0327878
0.70784998 4.682034 -1.5879145
0.80950475 3.2228844 -2.2461162
-0.68964291 1.1812204 1.1161668
-0.75835794 4.2346206 0.4590767
-0.73882067 3.3664634 -0.11036436
0.69152039 3.4421804 -0.49571344
-0.76828283 4.6756396 -0.65967029
0.61002892 4.6674113 -1.0318301
0.6065858 4.7191811 -1.5856317
0.71001446 3.1641171 -2.2497308
-0.81743211 1.1905749 1.1157968
-0.87446582 4.2182193 0.45926046
-0.86383617 3.6539369 -0.10900791
0.5939284 3.0891933 -0.50141984
-0.88220936 4.6292849 -0.66065627
0.4944827 4.6719556 -1.0314196
0.49047822 4.7356892 -1.5843865
0.59571481 3.0607576 -2.2564042
-0.94523311 1.2063957 1.1152418
-0.99198872 4.2882242 0.45831549
-0.97839099 3.3919532 -0.11022404
0.45091394 3.4611259 -0.49515268
-0.99695146 4.615335 -0.66092515
0.37746292 4.702868 -1.03012
0.3751092 4.742661 -1.5836601
0.47338232 3.0812814 -2.2544577
-1.0723572 1.1747112 1.1161668
-1.1083002 4.2986722 0.45815799
-1.080961 1.9224755 -0.11709057
0.33203188 3.448302 -0.49525169
0.26158231 4.7182493 -1.0293676
0.25959629 4.7540464 -1.5827262
0.35509634 3.0325327 -2.2573774
-1.1996822 3.3218043 0.4709675
-1.1991596 3.2593501 -0.11083211
0.23054081 3.4288158 -0.49548253
0.16178352 4.7428951 -1.0283415
0.16074622 4.7627192 -1.5819999
0.24885735 3.0787551 -2.2537627
-1.3235397 4.2029357 0.45939168
1.3931346 5.0905247 0.080689527
-1.3241203 4.3265424 -0.10583659
0.13666776 2.8994813 -0.50412464
-1.3241844 4.3401423 -0.6670202
0.047754347 4.7271318 -1.0286835
0.04572171 4.7689109 -1.5813773
0.13405922 2.9530993 -2.2621043
-1.4404575 4.6225648 0.45387942
1.2779336 5.1021423 0.080662265
-1.4410129 5.1601996 -0.10193558
-1.4370025 1.2785807 -0.73563391
-0.06699723 4.7257628 -1.0285467
-0.069414973 4.7795177 -1.5805472
-0.0079916418 3.4138269 -2.2295723
-1.5815575 -5.3144536 0.58431071
1.1708534 5.0205278 0.080751486
-1.5540295 5.1442909 -0.10201041
-1.5786772 -4.2199168 -0.85887879
-0.18206805 4.7328014 -1.0281364
-0.1842882 4.7865558 -1.5799246
1.5214667 0.90689582 -2.2022495
-0.10728632 2.9222722 -2.2634945
-0.016048431 -2.1951723 -0.58797312
-0.28086209 4.7448807 -1.0275891
-0.2819992 4.7746792 -1.5803397
1.4639072 0.25712663 -2.2432251
-0.20195405 2.6769083 -2.2803166
1.0309832 4.0997658 0.6490739
1.0686975 3.6195118 0.082471475
-0.11291379 -3.4493411 -0.60858887
-0.39391989 4.6987705 -1.0290256
0.99187118 4.5978222 -1.4071987
-0.3965323 4.7745166 -1.5801321
1.0170555 4.2700286 -1.9859189
-0.33063987 2.8638926 -2.2669702
0.90440494 4.2204151 0.64660776
-0.4708924 3.4717078 -0.49429509
-0.50908512 4.711009 -1.0284784
0.87607342 4.5989618 -1.4067388
-0.51135796 4.7847557 -1.5794058
0.9148016 4.0740185 -1.9978808
-0.44890395 2.758224 -2.2740602
0.80131698 4.2589788 0.64573509
0.96546155 1.9691544 0.084501252
-0.60766804 4.7201238 -1.0280679
0.78289181 4.5160122 -1.4102341
-0.60832769 4.7439547 -1.5813773
0.89700985 2.9159677 -2.0714333
-0.55036497 2.6494682 -2.2814288
0.68421036 4.2628255 0.64550745
0.81933618 2.275718 0.084109671
-0.69600797 3.6235716 -0.49168923
-0.72226119 4.717164 -1.0280679
0.66062832 4.6096129 -1.4055431
-0.72312093 4.7529759 -1.5807548
0.7779597 2.8756456 -2.0734692
-0.67034531 2.5545621 -2.2878239
0.56639236 4.279079 0.64505213
0.69359183 2.3014741 0.084067538
-0.81441653 3.6109478 -0.49185416
-0.83649862 4.6966372 -1.0286835
0.54151803 4.6658044 -1.4025997
-0.8369025 4.7164907 -1.5825187
0.71858776 1.9035687 -2.1350598
-0.79275322 2.5458579 -2.2882409
0.46604645 4.2848043 0.6448245
0.60217333 2.0592737 0.084359989
-0.91821945 3.7310035 -0.48984209
-0.93462116 4.6847982 -1.0290256
0.43885076 4.7294259 -1.3993803
-0.93513447 4.7146459 -1.5825187
0.61565274 1.8291166 -2.1393864
-0.89632976 2.4581072 -2.294219
0.34858805 4.2998719 0.64440715
0.47242469 2.1457412 0.084243506
-1.049017 4.6590519 -1.0298464
0.32348204 4.7365923 -1.3987365
-1.0494483 4.690918 -1.5836601
0.61676967 -0.37621209 -2.2797468
-1.0246372 2.8572104 -2.2662749
0.23169601 4.3073859 0.64414155
0.29723409 3.0894637 0.083063796
-1.1507323 3.3298774 -0.49640617
-1.1637719 4.6517129 -1.0300516
0.20765483 4.7541566 -1.3976326
-1.1637907 4.6536264 -1.5855279
0.48992231 -0.50321174 -2.2873819
-1.145957 2.8458147 -2.2669702
0.11368251 4.3392954 0.6434207
0.17515627 3.1131582 0.083026625
-1.2706406 3.364912 -0.49581239
-1.2783518 4.6088161 -1.0314881
0.091380417 4.7841244 -1.395977
-1.2782646 4.5947824 -1.5885371
0.35977411 -0.58192337 -2.2919631
-1.2661792 2.6453266 -2.2808726
0.014260352 4.3344674 0.6434207
1.3397179 5.0261288 0.26251733
0.15045188 1.4359893 0.085101023
-1.3760331 4.3183012 -0.48007843
-1.3737788 3.5809667 -1.0666475
-0.0058939457 4.7633986 -1.3967128
-1.3705685 2.5311177 -1.695727
0.24938521 -0.68319887 -2.2980711
-1.3699033 2.3136461 -2.3039508
-0.10201004 4.3352246 0.64330685
1.2238022 5.0439215 0.26231891
0.16428424 -1.8126862 0.089123413
-1.494745 -0.045244083 -0.5520522
-1.4954526 -1.2103735 -1.2306108
-0.12154278 4.7861748 -1.3954251
-1.496794 -3.4190073 -2.0048447
-0.11450335 4.6109958 -1.9598321
-1.4933288 2.2855644 -2.3058972
-0.2184132 4.3404016 0.64311713
1.1150415 4.9784403 0.26271573
0.18379378 -5.8052983 0.094067752
-0.23558041 4.773447 -1.3957931
-0.22807747 4.5703297 -1.9621226
-0.31731945 4.3226285 0.64338273
-0.31331936 4.2130237 0.081638739
1.0702128 4.315568 -0.29379389
1.0514143 4.5496626 -0.8501876
-0.33407417 4.7816944 -1.3952411
-0.3242979 4.4987569 -1.9664491
-0.43415868 4.3425889 0.64292741
0.96810341 4.1240201 0.26866794
-0.42898539 4.1849995 0.081668481
1.0210409 3.4330695 -0.30305889
0.92977083 4.6243434 -0.8478114
-0.44798446 4.7637515 -1.395885
-0.43544981 4.3650913 -1.9747206
0.858657 4.0146141 0.83738452
-0.54967058 4.3230052 0.64323097
0.89291948 3.5448151 0.27272114
-0.54524982 4.1713924 0.081680872
0.9024471 3.4141741 -0.30316466
0.81045407 4.6755638 -0.8461141
-0.5628264 4.7741847 -1.3952411
-0.40808949 -0.55442619 -2.2882726
0.73898214 4.0421853 0.83649176
-0.66566861 4.3178349 0.64326888
0.88964689 1.8664037 0.28458306
-0.66236389 4.188199 0.081656083
0.78388625 3.3937151 -0.30329159
0.6948595 4.6793718 -0.84577465
-0.67696702 4.7610726 -1.3957011
-0.66837144 4.4022341 -1.9719211
0.63480014 4.0932493 0.83505344
-0.7643947 4.2814693 0.64391392
0.85156214 0.8134588 0.29200915
-0.76163137 4.1578183 0.081690788
0.67951226 3.416719 -0.30297428
0.59558004 4.6866803 -0.84537864
-0.77407807 4.7147837 -1.3977246
-0.76701248 4.37392 -1.9735755
0.51814997 4.081749 0.83515263
-0.88070631 4.2850828 0.64380008
0.51111364 4.1944957 0.26794517
-0.87914336 4.2014151 0.081633784
0.4801091 4.6912823 -0.84503919
-0.88745815 4.6465139 -1.4007601
-0.88674688 4.5790892 -1.9603411
0.39898235 4.1125894 0.83421028
-0.99662197 4.265131 0.64414155
0.80053186 -2.7244771 0.31700847
-0.99581611 4.2114525 0.081618913
0.4420169 3.3798554 -0.30320695
0.36493421 4.692317 -0.84481287
-1.0021093 4.6305947 -1.4014039
-1.001915 4.5811429 -1.9600865
0.29784828 4.1248322 0.8337639
-1.0959154 4.2337999 0.64471066
0.28824884 4.2975469 0.26712319
-1.0807235 2.9541986 0.083175331
0.34346336 3.3041127 -0.30394733
0.26384658 4.7366014 -0.84339845
-1.0999939 4.5773301 -1.4037954
-1.1010447 4.6197343 -1.9575415
0.17992714 4.1405201 0.83321834
-1.2122549 4.2286325 0.64478654
0.1751073 4.2333837 0.2675342
-1.2051344 3.3609717 0.082669742
0.21818 3.4035263 -0.3028262
0.14837527 4.748414 -0.84288931
-1.2159431 4.678062 -1.3991044
-1.2153978 4.5447359 -1.9622499
0.063300818 4.1326785 0.83326793
-1.3277919 4.0399265 0.64835304
0.055642009 4.291481 0.26708069
-1.3325338 5.0841889 0.080533385
0.14615551 2.4147446 -0.31323349
0.03619206 4.694757 -0.8442471
-1.3304503 4.6253862 -1.4014958
-1.3305483 4.5260396 -1.963395
-0.054250836 4.1452394 0.83282155
-0.0603486 4.2820954 0.26710904
-1.4458369 5.1398826 0.080463991
0.031030476 2.2312231 -0.31511611
-0.080099821 4.7253857 -0.84322876
-1.4430847 1.9978608 -1.5224513
-1.4408607 -1.2824762 -2.3337021
-0.1543645 4.1429381 0.83277196
-0.16028041 4.2858076 0.26705235
-1.5428358 5.0959501 0.080518514
-0.14757866 3.9790661 -0.29656494
-0.17772907 4.7071815 -0.84362477
-1.5619395 -3.3364024 -1.7680414
-1.5582099 -1.4021485 -2.3413372
-0.27190536 4.160295 0.8322264
-0.2770718 4.2971983 0.26693895
-0.012844741 -2.7044489 -0.36725825
-0.29237252 4.7026453 -0.84362477
-0.38780373 4.1341276 0.83277196
-0.39056146 4.2150745 0.26749167
-0.11720344 -3.8088403 -0.37889239
-0.4075762 4.7145128 -0.84317219
-0.48830032 4.144865 0.83242482
-0.49043292 4.2138309 0.26747751
-0.46091664 3.2593195 -0.3040531
-0.50550771 4.7013292 -0.84345502
-0.60418552 4.1114898 0.83316875
-0.6067735 4.2064462 0.26750585
-0.57743216 3.129884 -0.30538571
-0.62044287 4.7079868 -0.84317219
-0.72110385 4.1125193 0.83306956
-0.72357941 4.2174792 0.26740664
-0.70341873 3.3627453 -0.30288967
-0.73508024 4.7050714 -0.84317219
-0.82058001 4.0783296 0.83386314
-0.82252145 4.1732917 0.26770425
-0.81113684 3.6164207 -0.30018207
-0.83347154 4.7089043 -0.84300244
-0.93762463 4.0821514 0.83371431
-0.93965423 4.2031183 0.26747751
-0.92675459 3.4342496 -0.30208585
-0.94797015 4.6987753 -0.84322876
-1.0537674 4.0204272 0.83520222
-1.0553533 4.1413827 0.26790267
-1.044223 3.292485 -0.30356658
-1.0617478 4.6290946 -0.84515232
-1.1706009 3.9851182 0.83604538
-1.1610702 2.9761462 0.27615073
-1.162969 3.177146 -0.30477229
-1.1767285 4.6337967 -0.84498262
-1.2705368 3.8903565 0.83837646
-1.2717028 4.0752821 0.26835617
-1.2676241 3.4283135 -0.30210701
-1.2751052 4.6150284 -0.84549177
-1.3912354 5.0527301 0.26142609
-1.3906471 4.8296981 -0.28727877
-1.3867135 3.3390307 -0.88158727
-1.5046124 5.0446401 0.26148278
-1.5045396 5.1155891 -0.28425387
-1.5124965 -2.6366694 -1.050693
1.1084672 4.324017 -1.795428
1.002243 4.402184 -1.22899
1.0021284 4.4036474 -1.7903455
0.8860274 4.399303 -1.2287494
0.88487756 4.4146996 -1.7891904
0.77562678 4.3151197 -1.2317967
0.76788223 4.4241958 -1.7881508
0.64745986 4.4865413 -1.2245792
0.64790398 4.4799433 -1.7844545
0.54504287 4.5338817 -1.222414
0.5461086 4.5172715 -1.7819132
0.42782927 4.5586119 -1.221131
0.42943835 4.5320072 -1.7806425
0.31195718 4.5638275 -1.2206497
0.31256342 4.553154 -1.7790254
0.21195459 4.5823226 -1.2196875
0.21199369 4.5815954 -1.7770617
0.096751153 4.5783544 -1.2196072
0.097186625 4.5696473 -1.7774082
1.337394 4.858799 -0.10393754
-0.019752741 4.602756 -1.2184043
-0.018239975 4.5700884 -1.7770617
1.23387 4.9158731 -0.10362881
-0.11765701 4.5823741 -1.2190459
-0.1171945 4.5716586 -1.7767152
-0.18266821 6.1008668 -2.2167382
1.1404043 4.6613789 0.45479813
1.1233073 4.8663015 -0.10381591
-0.23299488 4.5836082 -1.2188053
-0.23233518 4.5669007 -1.7767152
-0.29606092 6.1939845 -2.209358
1.0634177 4.1775584 0.46104538
1.0725111 4.0635223 -0.10753918
1.0552115 4.2804699 -0.67060548
-0.34887749 4.6012435 -1.2179232
-0.34849268 4.5904989 -1.775098
-0.40675396 6.2317252 -2.2061949
