# .PCD v0.7 - Point Cloud Data file format
VERSION 0.7
FIELDS x y z
SIZE 4 4 4
TYPE F F F
COUNT 1 1 1
WIDTH 917
HEIGHT 1
VIEWPOINT 0 0 0 1 0 0 0
POINTS 917
DATA ascii
0.68927824 -0.44245499 0.65607744
0.76718754 0.097101755 0.49854958
0.68049204 -0.20736764 0.67354923
0.75741005 0.31186259 0.51822793
0.51768845 -0.99616468 0.83093822
0.67310661 0.02565334 0.6908704
0.73931682 0.46157238 0.53178012
0.50598693 -0.81862473 0.84098774
0.67497301 0.26950502 0.7090953
0.73730898 0.67140782 0.55108714
0.48635933 -0.65789551 0.84999764
0.6633687 0.4550325 0.72280157
0.72869724 0.86627173 0.56890905
0.87440789 -1.892489 -0.074112892
0.88727427 -1.779902 -0.29137087
0.47012809 -0.48339236 0.85981607
0.65086049 0.62671632 0.73545355
0.73044127 1.1160904 0.59192902
0.82425863 -1.9051063 0.15730977
0.87106723 -1.5084029 -0.027308345
0.88401204 -1.3986959 -0.23822653
0.43614158 -0.42316604 0.86293489
0.6366415 0.78063929 0.74675
0.71078861 1.2262839 0.6017682
0.86092776 -1.2032956 0.0097452402
0.88280571 -1.0235432 -0.1859169
0.40562391 -0.38159537 0.86501408
0.62623847 0.91787833 0.75684142
0.75055087 -1.7701066 0.40199029
0.67744291 1.2197698 0.6006543
0.82132399 -1.2034736 0.23047972
0.8620491 -0.87741435 0.0494802
0.88366359 -0.70436186 -0.14139819
0.37510189 -0.30545661 0.869057
0.59398913 0.95578378 0.75925136
0.74315774 -1.4518512 0.42950404
0.54287165 0.66096354 0.54718858
0.81061089 -0.92743564 0.25912046
0.85575378 -0.57647085 0.086046219
0.88145292 -0.3766726 -0.095766425
0.34658471 -0.2558715 0.87159824
0.56283271 0.96731055 0.75970322
0.74167317 -1.1563019 0.45510232
0.61227125 1.2472198 0.60213947
0.80213058 -0.69766617 0.28295302
0.84935462 -0.3394199 0.11481154
0.88337654 -0.081327006 -0.05458653
0.31628311 -0.18352939 0.87541014
0.52673012 0.98185873 0.7603057
0.73356938 -0.87581104 0.47930741
0.58072746 1.2811708 0.60473847
0.79778206 -0.40209502 0.31368434
0.83477515 -0.12918539 0.1401639
0.88165075 0.21663052 -0.0131284
1.0646162 -3.1344228 -1.2406878
0.27888843 -0.15235712 0.87679625
0.49034849 0.9945721 0.76075751
0.72420102 -0.61911035 0.50142288
0.36904627 0.3360076 0.51451504
0.79009056 -0.14605632 0.34023452
0.98082268 1.2233074 0.30714869
0.86924714 0.42224914 0.015252352
1.0128018 -3.1217165 -1.2391686
0.24575269 -0.099478714 0.879453
0.45292994 1.0015352 0.76075751
0.71866655 -0.34870124 0.52475739
0.3236964 0.31406382 0.51173043
0.7820015 0.094127968 0.3651123
0.94789284 1.2540166 0.31031775
0.86590159 0.68074518 0.051145673
0.9591378 -3.1283655 -1.2414474
0.2151182 -0.067250706 0.88095468
0.42050284 1.0056541 0.76060688
0.71725327 -0.10490765 0.54582798
0.78076911 0.32944536 0.38957202
0.91720557 1.262467 0.3108052
0.86608124 0.91285241 0.083421826
0.91271764 -3.1375327 -1.2441063
0.17419197 -0.057311654 0.8810702
0.38236186 1.0089581 0.7603057
0.70801389 0.11600155 0.56480902
0.76451159 0.49271199 0.40629661
0.88341582 1.2855314 0.31299925
0.85656071 1.106469 0.11013305
0.85912228 -3.141854 -1.2460055
1.0394341 -1.4289082 -1.136508
0.14464054 -0.020975808 0.88280284
0.35653979 1.0465571 0.76271558
0.70787334 0.34776592 0.58483481
0.85014927 1.2765205 0.31129277
0.85272676 1.2933457 0.13600957
0.81405097 -3.1370323 -1.2460055
0.99847573 -1.4363341 -1.1389859
0.10508455 -0.0049100872 0.8832649
0.31180596 1.0168692 0.75985384
0.68754417 0.47793984 0.59580547
0.74774563 0.86152661 0.44434488
0.81437731 1.2860848 0.31178033
0.84127408 1.4574635 0.15854728
0.91004276 -1.8102156 -0.52663207
0.92323214 -1.6907008 -0.73673701
0.76345909 -3.1136656 -1.2425871
0.95279914 -1.4253839 -1.137747
0.068032987 0.023027204 0.88442004
0.27688381 1.0362067 0.76075751
0.68205619 0.69467008 0.61443824
0.74549961 1.0894614 0.46796834
0.78243452 1.3192978 0.31519318
0.90649217 -1.4240869 -0.46602249
0.88935947 -1.5698631 -0.71630549
0.88383639 -1.6174777 -0.95239234
0.90673345 -1.4181547 -1.1373341
0.023367027 0.013957979 0.88338041
0.23552519 1.024433 0.75925136
0.67554724 0.89556605 0.63167787
0.74683893 1.3290474 0.49284613
0.81452245 1.7405893 0.19722295
0.84940648 -1.5088593 -0.48039389
0.86431354 -1.3824534 -0.68409967
0.87815303 -1.2668453 -0.8851614
0.90071481 -1.0765601 -1.065887
-0.0072091985 0.042870779 0.88465106
0.20437682 1.0350951 0.7595526
0.68105423 1.1269168 0.65170366
0.7256825 1.3930497 0.49911785
0.76933628 1.6533718 0.35541582
0.80477029 1.8646768 0.21419573
0.8634541 -1.0628877 -0.62834549
0.87346321 -0.98144627 -0.83046484
0.87741083 -0.94757336 -1.0394557
-0.052767962 0.030200204 0.88338041
0.16710871 1.0431056 0.7595526
0.64647639 1.1469254 0.65292263
-0.20905943 -0.69139951 0.40999711
0.72963381 1.631916 0.35200298
0.7789064 1.9192836 0.22115183
0.89389288 -0.46342832 -0.31543577
0.88035238 -0.56873125 -0.54177046
0.85790592 -0.7460044 -0.78564429
0.83459234 -0.92842555 -1.0365646
-0.091995977 0.046958894 0.88384247
0.65901589 -1.9355694 0.62148362
0.12686142 1.0376215 0.75849825
-0.25737381 -0.7032519 0.40795493
0.5284729 0.6902734 0.4228121
0.52699846 0.68185925 0.23279774
0.75307977 1.972002 0.22782969
0.88686973 -0.1836907 -0.27169693
0.87742847 -0.25457114 -0.4870553
0.87273359 -0.29059005 -0.6979022
0.78961742 -0.92659265 -1.0373907
-0.12835419 0.048908535 0.88349593
0.66604567 -1.568221 0.64692527
0.095359892 1.0466692 0.75864887
0.57768869 1.1569383 0.65274853
-0.29434332 -0.69299114 0.40814054
0.49439368 0.69024032 0.42218494
0.51312423 0.79518765 0.24620533
0.7174629 1.9400872 0.222543
0.8853417 0.077536672 -0.23076975
0.88523149 0.078192011 -0.42887688
0.87612706 0.010015395 -0.640167
0.75280124 -0.91186476 -1.0353258
-0.17189634 0.046464361 0.88280284
0.65910482 -1.2713188 0.66736203
0.058134854 1.0550795 0.75864887
0.54122198 1.1655409 0.65292263
-0.34192348 -0.70061481 0.40646982
0.45086655 0.66979569 0.41925812
0.44400784 0.63216412 0.22499704
0.6916762 1.9910254 0.22894263
0.87142199 0.27876794 -0.19952762
0.88651055 0.39009729 -0.3745079
0.8660751 0.24123299 -0.59610605
0.7012068 -0.95819598 -1.0464764
-0.21639156 0.040300775 0.88187879
0.65515244 -0.96861374 0.68821585
0.020040616 1.059741 0.75834763
0.36229989 0.40838736 0.58500898
-0.38689831 -0.69640958 0.40591288
0.35804871 0.38553765 0.38810861
0.39836252 0.60221958 0.22036541
0.6629802 2.0245037 0.23283803
0.87302285 0.57971019 -0.15235209
0.88482964 0.66478086 -0.32671857
0.86921299 0.55403376 -0.53609204
0.5981487 -1.3666643 -1.134856
-0.25283116 0.042653989 0.88153225
0.65591156 -0.69262183 0.70726234
-0.017302487 1.0438803 0.75654018
0.28243148 0.17200564 0.56341588
-0.42428082 -0.68768525 0.40591288
0.32517126 0.39777938 0.38873577
0.36357889 0.60066855 0.21939027
0.6352455 2.0357542 0.23367274
0.87516773 0.83082825 -0.11298716
0.88742542 0.91710478 -0.28273857
0.88087833 0.87170738 -0.47493839
0.86204213 0.7423901 -0.68635011
-0.29930162 0.029043835 0.88014609
0.65084177 -0.42572731 0.72561371
-0.053146686 1.0585237 0.75699204
0.18495788 -0.11565959 0.53712118
-0.48683089 -0.75677031 0.39830136
0.27726987 0.36238688 0.38413656
0.31944832 0.58081204 0.21597743
0.60539728 2.0616262 0.2364552
0.87357372 1.082608 -0.073622108
0.88518268 1.1622885 -0.24014378
0.8823815 1.143356 -0.42290092
0.8758322 1.1003109 -0.61118603
-0.33648476 0.054429617 0.8810702
0.64501256 -0.1767116 0.74271381
-0.093620792 1.0539122 0.75593776
-0.2520569 0.40133002 0.50838876
0.27706277 0.57087463 0.2137835
0.57265425 2.0720463 0.23701167
0.86965722 1.3069135 -0.038630962
0.87673968 1.3547645 -0.20689905
0.88997871 1.4420313 -0.36554563
0.8834185 1.3999428 -0.54841161
-0.37198603 0.061053135 0.88095468
0.64406741 0.053537268 0.75856274
-0.12884238 1.0481499 0.75488341
-0.24554022 0.57398689 0.52416861
-0.32081637 -2.2424321 0.10337305
0.20391582 0.37896708 0.18891859
0.54474163 2.0816267 0.23756814
0.86789483 1.5010405 -0.0083261728
0.87263435 1.5327526 -0.17607832
0.86742461 1.4991251 -0.35529006
0.86969435 1.5148935 -0.52487135
-0.40458727 0.10411271 0.88291836
0.63789451 0.27867141 0.77399457
-0.16606031 1.0573831 0.75488341
-0.27676743 0.61456037 0.52713895
-0.37804466 -2.2714517 0.099191904
-0.36067379 -2.1862955 -0.13359356
0.51209879 2.0922647 0.23812461
0.86080909 1.6861128 0.020416498
0.87484741 1.7756566 -0.13382983
0.82415962 1.4562199 -0.36478603
0.86485171 1.7137336 -0.48357248
1.0771015 -0.13285846 -1.0636036
0.62887114 0.47612748 0.78748
-0.20717047 1.0512872 0.75367844
-0.31606385 0.62240738 0.52695334
0.82257426 -1.9568921 0.22972465
-0.42257166 -2.2379143 0.10170066
-0.40893739 -2.1723044 -0.13310599
0.47991219 2.1049583 0.23895931
0.86050212 1.9056405 -0.11166668
0.86364269 1.9259979 -0.43938255
1.0357748 -0.12610212 -1.063158
0.61440432 0.63216764 0.79804593
-0.24537238 1.0569439 0.7533772
-0.35881796 0.61690205 0.52546811
0.81030649 -1.6547678 0.25934863
-0.14401622 -0.67861336 0.26810992
-0.10325575 -0.48601493 0.077270389
0.44697362 2.1138892 0.23923755
0.83833879 1.9819555 0.066029906
0.85354859 2.0744641 -0.082577586
0.87184072 2.1845243 -0.22424662
0.87231171 2.1883307 -0.38445497
0.99518639 -0.11338863 -1.0613756
0.59651738 0.72822827 0.80444109
-0.28581411 1.0324123 0.7508167
0.73679274 -1.9175086 0.46670806
-0.62021202 -2.7126679 0.30064225
-0.39962268 0.59663033 0.5226835
0.81099081 -1.3199812 0.29233003
-0.18092626 -0.66870826 0.26831901
-0.13121961 -0.43742695 0.082389593
0.42216107 2.1374073 0.24174178
0.83081234 2.1134171 0.086337328
0.84164661 2.1783254 -0.064916253
0.84940696 2.2241275 -0.21740961
0.85640907 2.2664015 -0.36876142
0.95866305 -0.11674781 -1.063158
0.56901473 0.79771364 0.80888993
-0.32462189 1.0364368 0.75036484
0.72598064 -1.6207829 0.49059856
-0.42979211 -1.5980141 0.3993783
-0.47523162 0.46826687 0.50931704
0.80434012 -1.0082008 0.32294142
-0.2231613 -0.65344435 0.26894617
-0.14079332 -0.27691594 0.10140395
0.38766193 2.1388085 0.24090707
0.80693108 2.1736259 0.095085025
0.83041573 2.3101518 -0.042406797
0.83928049 2.3613327 -0.19158077
0.85036999 2.4262693 -0.33572233
0.91741657 -0.10956027 -1.0627124
1.0502299 0.92697996 -1.0055993
0.53226453 0.81224793 0.80944604
-0.36550784 1.0329057 0.74931049
0.71575594 -1.3360152 0.51351392
0.11681795 1.0786654 0.63812095
-0.86167932 -0.81156242 0.38474929
0.7910971 -0.76362866 0.34683812
-0.27266577 -0.67103583 0.26601934
0.35185587 2.1345408 0.23923755
0.78174937 2.2241609 0.10227072
0.79987639 2.3274968 -0.040328979
0.81337094 2.4037452 -0.18436384
0.8359322 2.5321043 -0.31424689
0.87467068 -0.11381875 -1.0649405
1.0123054 0.92996669 -1.0060771
0.50244713 0.8337853 0.81055826
-0.40217489 1.0242355 0.74795491
0.71802098 -1.022588 0.53886712
0.092033744 1.1168935 0.64090711
-0.97268867 -1.0703377 0.35875905
0.78869897 -0.49826419 0.37290728
-0.3104077 -0.66461104 0.26581025
0.23862535 1.7658169 0.35639083
0.32423615 2.144794 0.23979402
0.75668931 2.2466972 0.10508251
0.77059019 2.3247237 -0.041714191
0.81285173 2.5600815 -0.30929101
0.841205 -0.093604274 -1.0613756
0.98132849 0.94390965 -1.0036876
0.58972657 -1.6173339 0.71953809
0.46768793 0.85836589 0.81180948
-0.45010185 0.99602443 0.74494255
0.70969015 -0.7538473 0.56048226
0.053281639 1.1175485 0.64021057
0.78114063 -0.2380887 0.39838386
-0.35880136 -0.67602563 0.2635107
0.20359084 1.7717631 0.35614705
0.28881708 2.1427069 0.23840284
0.72779047 2.2740464 0.1085192
0.74089694 2.3461494 -0.038943768
0.77160752 2.5130441 -0.16499221
0.78506488 2.5870223 -0.30474818
0.79952705 -0.08985085 -1.0618212
0.94372094 0.94907314 -1.0036876
1.0643609 1.8194724 -0.95322561
0.59009373 -1.2787598 0.74091667
0.42866588 0.85953003 0.81139237
-0.49127626 0.99299204 0.7438882
0.70246226 -0.49113384 0.5816099
0.018582966 1.135813 0.64108127
-0.64556944 0.44247016 0.50281942
0.7749055 0.018040936 0.42346549
-0.40369457 -0.67174929 0.26288354
0.17082921 1.7875046 0.35712218
0.25741023 2.1581151 0.23951578
0.69615352 2.285955 0.10945642
0.74047744 2.5228267 -0.16423249
0.75564831 2.6044343 -0.30227017
0.75647724 -0.095594361 -1.0644948
0.90530837 0.9486078 -1.0051212
1.0280458 1.8109248 -0.95679379
0.59092379 -0.99857038 0.75860482
0.39803886 0.87548274 0.81208754
-0.52824914 0.98476803 0.74253267
0.70053542 -0.24715897 0.60127485
-0.016261 1.129684 0.6398623
-0.67719913 0.4596647 0.50356209
0.77136642 0.23974279 0.44518971
-0.44237554 -0.66877925 0.26225638
0.14307782 1.8021904 0.35809731
0.22579579 2.1513104 0.23756814
0.67110038 2.3067853 0.11195576
0.70095098 2.4638672 -0.019897342
0.73193532 2.6268513 -0.29855335
0.72238559 -0.08081872 -1.0622668
0.87392974 0.95902908 -1.0036876
1.0002116 1.8266733 -0.95373535
0.58843374 -0.7096839 0.77680206
0.36018452 0.88278544 0.81208754
-0.57561952 0.96096528 0.73982149
0.69514 0.0035009719 0.62142736
-0.061110616 1.1055729 0.63690197
0.7638725 0.46416369 0.46711147
-0.49240345 -0.6854592 0.25932956
0.10629805 1.8007714 0.3568784
0.19308239 2.1611614 0.23784637
0.63811237 2.3111377 0.11164331
0.66590238 2.4545803 -0.022667766
0.68590975 2.5572565 -0.15967453
0.6990006 2.6252358 -0.30020523
0.67900163 -0.088196546 -1.0653861
0.83580267 0.9607451 -1.0046434
0.96526593 1.8279369 -0.95475483
1.0682248 2.5167515 -0.92439771
0.58410335 -0.44659483 0.79334497
0.32313457 0.89414018 0.81236559
0.68672425 0.22251704 0.63897949
-0.094330192 1.1300396 0.63829505
-0.272652 0.40126735 0.37577426
0.074667722 1.8207059 0.3583411
0.16182452 2.1769016 0.23895931
0.60936725 2.3369267 0.11476755
0.64112663 2.4975991 -0.016088009
0.64656502 2.5249734 -0.16727126
0.6755656 2.67173 -0.29153252
0.64027709 -0.064573258 -1.0613756
0.80120665 0.98563778 -0.99986434
0.93060493 1.8312424 -0.95526457
1.0375515 2.5291986 -0.92223358
0.58517116 -0.20034806 0.80886984
0.29192963 0.90649283 0.81278265
0.68614483 0.44449663 0.65685678
-0.20415524 0.82262349 0.60991067
-0.585042 1.185504 0.5709511
0.73943675 0.78602415 0.49831545
-0.29796806 0.44437748 0.37953722
0.046146356 1.8318211 0.35882854
0.12679119 2.1569757 0.23506391
0.58150929 2.3425059 0.11476755
0.61455297 2.5069396 -0.015395403
0.64837176 2.6751814 -0.29194546
0.85253668 1.5203959 -0.69597077
0.79076773 1.1287609 -0.96545434
0.90235561 1.8434575 -0.95322561
1.0111909 2.5391378 -0.92061019
0.57718444 0.01714845 0.82248592
0.25177774 0.90245813 0.81194848
0.67132515 0.60426897 0.66953331
-0.29719749 0.61381263 0.59023309
-0.61604875 1.2154864 0.57280755
0.73497093 1.0023434 0.51944721
-0.31213161 0.55452967 0.39040828
0.011314526 1.8384813 0.35858488
0.097989857 2.1825478 0.23756814
0.5486325 2.3471906 0.1144551
0.58267677 2.5134375 -0.015395403
0.58671588 2.5330687 -0.16803086
0.61671746 2.679637 -0.29235852
0.85289681 1.749336 -0.64427948
0.85638207 1.7731465 -0.80630898
0.86896592 1.8546332 -0.9516964
0.98095721 2.5536866 -0.91790485
0.56494945 0.19909394 0.83381146
0.20993179 0.89076889 0.81055826
0.67314857 0.85842311 0.69001085
-0.3271181 0.65840936 0.59336758
-0.64803076 1.2417489 0.57429272
0.73561406 1.2401561 0.54275143
-0.34967881 0.57021838 0.39103544
-0.025467612 1.837579 0.35736597
0.060510479 2.1736722 0.23506391
0.51779175 2.361665 0.11570477
0.55405682 2.5354753 -0.012625098
0.55735224 2.5511999 -0.16575193
0.58707988 2.6937871 -0.29070652
0.84068811 1.8915645 -0.61264062
0.85205114 1.9627324 -0.76042914
0.85007071 1.9537114 -0.92671895
0.94893742 2.5569413 -0.91844606
0.54642379 0.33570367 0.84221017
0.17713021 0.92217529 0.81222653
0.65701061 0.99446547 0.70073718
-0.37427786 0.63558751 0.59040725
-0.67050946 1.2985713 0.57874823
0.71227491 1.3247285 0.55065113
-0.3846468 0.59566492 0.39270782
-0.062786989 1.8348995 0.35590327
0.028412163 2.1860373 0.23562038
0.48826942 2.3820424 0.11789179
0.52064109 2.5344887 -0.01401031
0.52850729 2.5713489 -0.16309309
0.55548018 2.6984708 -0.29111946
0.8343491 2.0625939 -0.57431769
0.84039557 2.1005116 -0.72745299
0.82450449 2.0089352 -0.9134655
0.91724223 2.5622137 -0.91844606
0.52944666 0.44182649 0.84870011
0.13891581 0.90182102 0.8102802
0.63266712 1.0450922 0.70447516
-0.42369735 0.5826062 0.58483481
-0.44580349 0.49857777 0.38120973
-0.093734071 1.8368331 0.35517204
-0.0034443364 2.1800344 0.23367274
0.46097213 2.3899324 0.11820424
0.49757573 2.559597 -0.01054728
0.50762367 2.605967 -0.15739548
0.52834374 2.7023051 -0.29153252
0.83723384 2.2519534 -0.53153872
0.82130563 2.1608768 -0.71359348
0.8001892 2.0405264 -0.90632915
0.89009029 2.5668242 -0.91844606
0.49722236 0.48993811 0.85137242
0.10330748 0.91981441 0.81097531
0.59337258 1.0397519 0.70350003
-0.52738041 0.35037619 0.56289351
0.52846777 0.6696924 0.48350346
-0.49375647 0.47630653 0.37765574
-0.13164617 1.8325064 0.35346556
-0.038047321 2.183059 0.23283803
0.42866796 2.3969939 0.11820424
0.42389673 2.3760898 -0.044830918
0.47611108 2.6128561 -0.15739548
0.49802709 2.7129397 -0.29070652
0.8269515 2.3863113 -0.50168252
0.81027049 2.2928731 -0.68205118
0.75959414 2.0063438 -0.91703367
0.85776711 2.5685191 -0.91952825
0.46881244 0.52535415 0.8532812
0.067950115 0.91336131 0.81000215
0.55374914 1.0022136 0.69992459
0.58018774 1.1516633 0.53149426
-0.52382052 0.49880165 0.37911916
-0.16160348 1.8385003 0.35322177
-0.073622622 2.1639061 0.22894263
0.40186247 2.4069963 0.11882901
0.43531516 2.5571749 -0.013317704
0.44697618 2.6092727 -0.15929472
0.47434303 2.732234 -0.28781557
0.81738937 2.4929371 -0.47806478
0.81978536 2.5081294 -0.6294806
0.72526175 1.9809909 -0.92518973
0.83232677 2.5827947 -0.91682291
0.43110305 0.54025406 0.85379022
0.028908381 0.91603744 0.80958503
0.52420664 1.0520905 0.70350003
-0.62334931 0.28965962 0.55557972
0.57326627 1.3227754 0.54808372
-0.39888254 1.1079587 0.44434488
-0.19907525 1.8363609 0.3517592
-0.10360788 2.1843884 0.23061204
0.36786723 2.40657 0.11757934
0.40843439 2.5854557 -0.0095083714
0.42332256 2.650846 -0.15245759
0.44155574 2.7316124 -0.28946757
0.78301513 2.4852643 -0.48118424
0.79522067 2.5539975 -0.61944437
0.68799031 1.9680603 -0.93028712
0.79762018 2.5714455 -0.92169237
0.39566383 0.56706196 0.85506278
-0.0083449483 0.92663628 0.80972409
0.48809052 1.0648086 0.7039876
-0.63770717 0.39284468 0.56393832
0.35753649 0.36278826 0.45052207
-0.43321344 1.1277612 0.44539022
-0.23393591 1.8439329 0.35151541
-0.14090899 2.1782565 0.22838616
0.33696148 2.4197459 0.11851656
0.37284836 2.5754373 -0.012625098
0.37957299 2.6044798 -0.16309309
0.40917969 2.7330227 -0.29070652
0.76955104 2.5922914 -0.61131978
0.63751721 1.8849294 -0.95424509
0.76738775 2.5848432 -0.91952825
0.36188123 0.60182923 0.85684431
-0.051036883 0.91406405 0.80819482
0.45092943 1.0717801 0.7039876
-0.65892476 0.46914154 0.56985897
0.30668661 0.31157979 0.44459724
-0.54036647 0.88925254 0.41821277
-0.27093232 1.8439924 0.3502965
-0.17398486 2.1875253 0.22838616
0.30703068 2.4368763 0.12007868
0.34303024 2.5904901 -0.011239886
0.35300511 2.6328633 -0.1589148
0.37768501 2.7383676 -0.29111946
0.73765582 2.5948362 -0.45845771
0.74196887 2.6192088 -0.60606289
0.60408223 1.8951466 -0.95322561
0.73471868 2.5851052 -0.9211514
0.32781795 0.60427469 0.85658979
-0.083824933 0.91978472 0.80805576
0.42249286 1.0954791 0.7054503
-0.69702172 0.46338841 0.56846589
-0.30742157 1.8275251 0.34712744
-0.20937911 2.1708095 0.224769
0.27444285 2.4222686 0.11664212
0.31276852 2.5834935 -0.013664007
0.32425427 2.6316068 -0.16043413
0.34836268 2.7332518 -0.29359746
0.70912981 2.5923538 -0.46024013
0.71720499 2.6358118 -0.60319543
0.57373649 1.8950481 -0.95475483
0.70581448 2.580837 -0.92385674
0.29089463 0.62162894 0.85722607
-0.12433533 0.91721904 0.80722165
0.38429141 1.0968229 0.70496273
-0.73390305 0.48325792 0.37159312
-0.34012538 1.843127 0.34785879
-0.24303281 2.1784265 0.22449076
0.24784684 2.4530509 0.12039113
0.28256804 2.5968392 -0.012625098
0.29237396 2.63726 -0.16081405
0.31731778 2.7407241 -0.29359746
0.68321216 2.6271999 -0.45355594
0.6865505 2.6457436 -0.60223961
0.54335314 1.9206748 -0.94965744
0.67681217 2.6002238 -0.92006922
0.25250262 0.6312831 0.85735333
-0.16585235 0.91093779 0.80610943
0.34372386 1.0865825 0.70350003
-0.378342 1.8397957 0.34615242
-0.27889645 2.1785676 0.22309947
0.21341185 2.4513025 0.11882901
0.25243771 2.6102905 -0.011586189
0.26191741 2.6487508 -0.16005433
0.28583199 2.7464092 -0.2940104
0.63989007 2.5741839 -0.46737003
0.66014814 2.6767294 -0.59602666
0.50894815 1.9255414 -0.95016718
0.6471718 2.6159317 -0.91736388
0.22048269 0.64385897 0.8577351
-0.20108721 0.90734625 0.80527526
0.30995041 1.0832365 0.70268744
-0.61708349 1.1435879 0.62749857
-0.47488809 -2.7698689 0.12959552
-0.83174026 0.42074671 0.36239457
-0.41736367 1.8161305 0.34200823
-0.31232196 2.1698515 0.22059536
0.18112753 2.4389603 0.11570477
0.21827891 2.5883243 -0.016780615
0.23218513 2.6439893 -0.16233337
0.25736466 2.7454088 -0.2956624
0.60927242 2.5624721 -0.47138071
0.63102967 2.6707306 -0.59889412
0.48250332 1.9447033 -0.94659901
0.6178813 2.6100721 -0.92061019
0.1805643 0.64595079 0.85735333
-0.239802 0.91297591 0.80499721
0.27488247 1.1006191 0.70350003
-0.64361316 1.1889513 0.630633
-0.88386393 0.39065671 0.35779536
-0.46835536 1.7712893 0.33493876
-0.34542742 2.1797483 0.22059536
0.15289126 2.4623649 0.11820424
0.1876725 2.6000931 -0.016088009
0.20371112 2.6633079 -0.16005433
0.22251454 2.7380402 -0.29896629
0.60488772 2.7018859 -0.59268117
0.44896057 1.9535826 -0.94608927
0.58755815 2.6222124 -0.91898704
0.14310783 0.65990984 0.8577351
-0.28199333 0.90522665 0.80374599
0.23538184 1.0966698 0.7025249
-0.68089288 1.1981628 0.63045889
-0.91942531 0.41597843 0.35925877
-0.51623851 1.7380897 0.32933199
-0.38369587 2.1727171 0.21809113
0.12036192 2.4686418 0.11789179
0.15663184 2.6100616 -0.015741706
0.16849175 2.6560977 -0.16309309
0.18807037 2.7327082 -0.30185723
0.55724686 2.6290321 -0.45890331
0.56930518 2.6875169 -0.5979383
0.41025347 1.937986 -0.95220613
0.55610454 2.6288078 -0.91898704
0.10914617 0.66305941 0.85748059
-0.31837454 0.89816952 0.80263376
0.20530196 1.1112266 0.70317501
-0.37432909 -1.5892507 0.24631405
-0.6561237 1.3900304 0.46525061
-0.58341253 1.6258047 0.31373048
-0.41498348 2.1719537 0.21669996
0.089428477 2.4623766 0.11570477
0.12565491 2.601814 -0.01851213
0.13816777 2.6497614 -0.16575193
0.16590534 2.7566497 -0.29814029
0.53931379 2.6767118 -0.44909978
0.54336447 2.6970184 -0.59698248
0.38439316 1.959319 -0.94812822
0.53037739 2.6402011 -0.91736388
0.071366794 0.67532241 0.8577351
-0.35665166 0.90616816 0.80249476
0.16405974 1.099758 0.70154983
-0.24921981 -0.791623 0.32629883
-0.68022263 1.4391638 0.46943176
-0.65757889 1.5116446 0.29764152
-0.45457697 2.161433 0.21363926
0.057392418 2.4707997 0.11570477
0.091103375 2.5986786 -0.020589948
0.10832657 2.663698 -0.16461241
0.12943509 2.7439828 -0.30268323
0.50764406 2.6815798 -0.44954538
0.51260018 2.7056732 -0.59650445
0.35133773 1.9704432 -0.94710875
0.49734434 2.6394825 -0.91952825
0.034945935 0.69356465 0.85837138
-0.39853147 0.90082228 0.80138254
0.12962358 1.119592 0.7025249
-0.28411251 -0.74113822 0.33044624
-0.7088027 1.4731706 0.4719404
-0.68710566 1.541737 0.30007923
-0.49966288 2.1340857 0.20807445
0.021285109 2.4640775 0.11320543
0.054453269 2.5880718 -0.024052978
0.072950236 2.6568801 -0.16765106
0.095890611 2.7428076 -0.30474818
0.47937208 2.7017899 -0.44642615
0.48356187 2.7220223 -0.59411502
0.31623644 1.9722452 -0.94863796
0.46637297 2.648288 -0.91898704
-0.0079741254 0.68273139 0.85709882
-0.4431113 0.88602102 0.79957521
0.092665806 1.127877 0.7025249
-0.36826742 -0.90991741 0.31227684
-0.68858469 1.6588733 0.31373048
-0.53712928 2.1314676 0.20612669
-0.010224491 2.4746559 0.11351788
0.027024783 2.6118248 -0.021282554
0.042143829 2.6672566 -0.16727126
0.069002151 2.7663078 -0.30144417
0.44648957 2.7011759 -0.44820857
0.45504713 2.7403629 -0.59124756
0.28496474 1.9911579 -0.94557953
0.43586612 2.6590838 -0.91790485
-0.043703429 0.67858565 0.85633528
-0.48720318 0.85260272 0.79651666
0.057000801 1.1175992 0.70106226
-0.41967118 -0.95944583 0.30635202
-0.85099769 1.2597258 0.44601738
-0.71428406 1.6817532 0.31543696
-0.56501675 2.1425333 0.20640492
-0.043956012 2.4593313 0.10976887
-0.0062584132 2.5964472 -0.02543819
0.011667818 2.6613669 -0.1699301
0.039891154 2.7641518 -0.30350912
0.39010692 2.5780456 -0.47851038
0.42715335 2.740747 -0.59268117
0.25169247 1.9789096 -0.95067692
0.41160774 2.6764657 -0.91465855
-0.084543496 0.67778921 0.855699
-0.53212959 0.83817345 0.79470932
0.015508011 1.1067363 0.69943702
-0.45520312 -0.91036993 0.3103019
-0.90231305 1.226244 0.44099998
-0.75041336 1.6893549 0.31494939
-0.60809702 2.1232471 0.20195305
-0.073871359 2.475852 0.11101854
-0.037271142 2.6071174 -0.025091887
-0.022286355 2.6606195 -0.17182922
0.0084337443 2.77087 -0.30392218
0.35450327 2.5682774 -0.48252106
0.39260241 2.732801 -0.59650445
0.22228181 2.0055728 -0.94557953
0.37728822 2.6705816 -0.91844606
-0.12219818 0.69074553 0.85595351
-0.020116478 1.121258 0.69992459
-0.50832236 -0.93672293 0.30654955
-0.94167358 1.229877 0.25400603
-0.65822363 2.0834787 0.19444048
-0.10693635 2.4810719 0.11039364
-0.071466893 2.606529 -0.026823282
-0.057887077 2.6543391 -0.17486799
-0.026214108 2.7664104 -0.30681312
0.32510477 2.5852139 -0.4802928
0.36065841 2.7363312 -0.59746027
0.18678357 2.0059855 -0.94761848
0.34378916 2.6685817 -0.9211514
-0.15709069 0.69086885 0.85544455
-0.051324513 1.130759 0.70008713
-0.5915935 -1.1153178 0.28739262
-0.68939173 2.085531 0.19332755
-0.13979478 2.4699159 0.10726953
-0.098474547 2.6142461 -0.026823282
-0.10156037 2.6035097 -0.18664289
-0.053260326 2.772104 -0.30722606
0.29529092 2.5803118 -0.48296666
0.33905548 2.7634592 -0.59220338
0.15788798 2.0128937 -0.94761848
0.32193238 2.6955848 -0.91519952
-0.20414487 0.66530704 0.85315394
-0.087767079 1.1416438 0.70024961
-0.2786673 0.36110556 0.43709254
-0.74000114 2.0461762 0.18581498
-0.17567019 2.4659023 0.10508251
-0.12940179 2.625248 -0.026476979
-0.13252857 2.6145175 -0.18626308
-0.086897716 2.7716537 -0.30929101
0.26275939 2.5841906 -0.48385787
0.30673707 2.765306 -0.59363699
0.1251231 2.0248256 -0.94659901
0.29166472 2.7068937 -0.91411757
-0.24276543 0.6748178 0.85315394
-0.1443309 1.0714021 0.69358629
-0.30066198 0.4423607 0.44439983
-0.21048956 2.4658241 0.10352039
-0.16586156 2.6174691 -0.029593706
-0.16122417 2.6331675 -0.18436384
-0.1211255 2.7694597 -0.31176901
0.23116873 2.5919766 -0.48385787
0.27159512 2.7559667 -0.5979383
0.089150861 2.0237367 -0.9491477
0.26052344 2.7145736 -0.91411757
-0.28071013 0.66372544 0.85188144
-0.2641767 0.72945321 0.66417015
-0.30582082 0.56468338 0.45605195
-0.24302849 2.4569438 0.1007086
-0.19283448 2.6254823 -0.029593706
-0.20894839 2.5715544 -0.19841778
-0.14762107 2.7773318 -0.31176901
0.20268568 2.5930715 -0.48519468
0.24458101 2.7607226 -0.59841609
0.062673159 2.0403283 -0.94659901
0.23291287 2.7175126 -0.91519952
-0.32131198 0.66578132 0.85137242
-0.26753351 0.87631083 0.67570907
-0.32904619 0.63627362 0.46237171
-0.27794442 2.4571316 0.099146485
-0.22826667 2.6217418 -0.032017827
-0.25879222 2.520932 -0.21057248
-0.18190414 2.7753844 -0.31424689
0.21459302 2.7710845 -0.44508922
0.20978847 2.7535222 -0.60223961
0.025735907 2.0357366 -0.95016718
0.19942521 2.7160814 -0.91790485
-0.36844847 0.6428771 0.84920913
-0.3203935 0.82816601 0.67083347
-0.36827224 0.64431548 0.46217418
-0.31173542 2.4612348 0.098209262
-0.26780528 2.6049635 -0.036866069
-0.26757327 2.6057198 -0.19537914
-0.21853134 2.7660913 -0.31837678
0.18270794 2.7752728 -0.44598055
0.17784265 2.7577419 -0.60319543
-0.0044609234 2.0574987 -0.94659901
0.16977032 2.7296898 -0.9162817
-0.41223165 0.63368893 0.84793657
-0.36349133 0.81882459 0.66920829
-0.41710341 0.61593515 0.4582243
-0.34260046 2.4749014 0.098834157
-0.3022396 2.6052895 -0.038597465
-0.31656647 2.5591967 -0.20677423
0.14933418 2.7739239 -0.44820857
0.14441407 2.7564487 -0.60558486
-0.037980311 2.0662687 -0.94659901
0.14362161 2.7564349 -0.91087103
-0.45469141 0.60777187 0.84564602
-0.33500081 1.056674 0.68854821
-0.5006147 0.43629119 0.43886995
-0.38068053 2.4495478 0.093210578
-0.32806897 2.6174905 -0.037904859
-0.34843141 2.5526977 -0.20981288
0.1223486 2.7790632 -0.44865417
0.11286853 2.744724 -0.61036396
-0.063193947 2.0869625 -0.9430306
0.11609042 2.7597544 -0.91195321
-0.50551075 0.57388818 0.8427192
-0.40186104 0.95698166 0.67928451
-0.41216126 2.4615762 0.093522906
-0.36132616 2.6218114 -0.038943768
-0.35750157 2.6338263 -0.19537914
0.090963438 2.7854815 -0.44909978
0.082882389 2.7568078 -0.60940814
-0.0996387 2.0847471 -0.94608927
0.07960581 2.7476346 -0.91790485
-0.53812444 0.60760045 0.84424627
-0.45893487 0.89609045 0.6732713
-0.93722749 -0.84551919 0.30477202
-0.45934772 2.4248321 0.085712433
-0.40425706 2.5962634 -0.045523524
-0.40215966 2.6027706 -0.20373547
0.054946557 2.7750955 -0.45355594
0.049352817 2.7558887 -0.61179781
-0.13254502 2.0957305 -0.94557953
0.058821075 2.7932227 -0.90708351
-0.48757833 0.91847789 0.67440891
-0.64841819 0.34039783 0.42583537
-0.48814818 2.4300125 0.085087657
-0.4453305 2.56195 -0.053488374
-0.42491943 2.6245952 -0.20107663
0.025333382 2.7711442 -0.45622969
0.025415927 2.7725809 -0.60940814
-0.15960237 2.1092312 -0.94405031
0.028270379 2.7856905 -0.91141224
-0.53608388 0.89065313 0.67115855
-0.66447085 0.4358252 0.43452513
-0.53576934 2.3936517 0.077277064
-0.52759814 2.4189398 -0.08188498
-0.45943332 2.6255786 -0.20297587
-0.017744005 2.736639 -0.46647882
-0.011810064 2.7588065 -0.6151433
-0.19083034 2.1260145 -0.94201112
-0.0062406808 2.781364 -0.91519952
-0.52567333 1.0700444 0.68546033
-0.69353783 0.4833836 0.43827748
-0.57180738 2.3931241 0.075402617
-0.54731077 2.4669917 -0.07495892
-0.064322606 2.6910913 -0.47940159
-0.042758986 2.7675982 -0.6151433
-0.22675726 2.1261694 -0.94456005
-0.56082857 1.0677063 0.6844852
-0.61085141 2.368722 0.069779038
-0.56404793 2.5079322 -0.069071889
-0.11112042 2.6294897 -0.49588943
-0.071420714 2.7677629 -0.61705494
-0.26011375 2.1176581 -0.9491477
-0.6007759 1.0689573 0.68367261
-0.6515255 2.3554094 0.065717459
-0.6175583 2.4553719 -0.080846071
-0.14364035 2.6349046 -0.49678063
-0.11108533 2.7469571 -0.6247015
-0.64245677 1.0646322 0.68237239
-0.68588448 2.3609469 0.064780235
-0.65862358 2.440321 -0.085694194
-0.1733751 2.6497865 -0.49544382
-0.14705977 2.7393599 -0.62900281
-0.66684633 1.0989683 0.6844852
-0.63298607 1.2122527 0.5093751
-0.73775274 2.301589 0.05322063
-0.645823 1.3013905 0.51747227
-0.67506671 1.3353367 0.51984215
-0.70191503 1.3582553 0.52122462
0.81121475 -1.9230905 0.31234789
0.8079108 -1.5516168 0.3466922
0.70405507 -1.9980407 0.53979969
0.79658139 -1.2652541 0.37305367
0.69885647 -1.6595902 0.56510371
0.78732967 -0.97898304 0.39941525
0.70030636 -1.3399506 0.58905208
0.78244227 -0.72325706 0.42299223
0.69139361 -1.0630456 0.60968685
0.77546424 -0.44903058 0.44823992
0.69159788 -0.78120285 0.63077348
0.77422374 -0.19153088 0.47200239
