# .PCD v0.7 - Point Cloud Data file format
VERSION 0.7
FIELDS x y z
SIZE 4 4 4
TYPE F F F
COUNT 1 1 1
WIDTH 975
HEIGHT 1
VIEWPOINT 0 0 0 1 0 0 0
POINTS 975
DATA ascii
0.69930774 -0.62927473 0.62730408
0.76919925 -0.070453212 0.47025621
0.6888718 -0.37062952 0.64658332
0.75618392 0.15200602 0.49067712
0.54811531 -1.1573173 0.8050912
0.68279904 -0.13854963 0.66390449
0.75301123 0.39340603 0.51295447
0.53187251 -0.93959457 0.81745094
0.67320228 0.10016315 0.68167752
0.72603428 0.4894371 0.52149415
0.51775515 -0.71796542 0.83004165
0.66864038 0.36249426 0.70125794
0.72119564 0.73935813 0.54451412
0.91888052 -2.0235982 -0.3331089
0.5045529 -0.54470599 0.83986014
0.65964568 0.54100102 0.71451241
0.71559763 0.93321073 0.56233603
0.89774609 -1.8146111 -0.074362874
0.90859139 -1.7042383 -0.28859019
0.48669657 -0.36862782 0.84979409
0.64400214 0.70446497 0.7265619
0.71491468 1.18884 0.58591294
0.84147477 -1.8969699 0.14640987
0.88821208 -1.4385949 -0.028533578
0.89816993 -1.3409339 -0.23794997
0.46239927 -0.24391504 0.8567248
0.62242937 0.82056648 0.73499656
0.68651748 1.2474052 0.59092534
0.8360042 -1.4924557 0.1886394
0.87328148 -1.1396781 0.0077886581
0.89247543 -0.95803386 -0.1845274
0.43761209 -0.16745038 0.86088324
0.60762256 0.93980783 0.74373245
0.77316487 -1.7016362 0.39435863
0.83276892 -1.1540328 0.22397006
0.86979318 -0.81387889 0.047523737
0.88862038 -0.64090645 -0.14028692
0.4071101 -0.091994859 0.8649261
0.57311583 0.96332818 0.74508804
0.75961715 -1.3994498 0.4204793
0.55909848 0.87411034 0.55472463
0.81827927 -0.87826645 0.2526108
0.85804373 -0.52498013 0.082627058
0.88008994 -0.32911 -0.096881032
0.37333176 -0.04012398 0.86758286
0.53527611 0.96530616 0.7447868
0.74895567 -1.091404 0.44712234
0.58387393 1.2673973 0.59129661
0.80257684 -0.63022166 0.27832484
0.84174556 -0.29334107 0.11066103
0.87336999 -0.021346897 -0.05403173
0.3463718 0.014828508 0.87047064
0.50758839 0.99607062 0.74674481
0.74321967 -0.81387317 0.47115338
0.54938966 1.2508085 0.58925456
0.79894209 -0.34739703 0.30780184
0.97919726 1.1615944 0.29007816
0.86774707 0.22859828 -0.019251347
0.31064937 0.051118501 0.87220335
0.46819162 0.98845828 0.74569046
0.73116267 -0.55150008 0.49379122
0.35434031 0.31021479 0.49977374
0.79024321 -0.071845725 0.33644271
0.95048064 1.2290666 0.29787898
0.85859537 0.48308185 0.016085386
1.0463721 -3.1117384 -1.239651
0.27651954 0.095391527 0.87439805
0.43242776 1.0026211 0.74629295
0.72126019 -0.28722456 0.51660323
0.31373125 0.31104809 0.49921679
0.77728546 0.1542816 0.35985708
0.91649503 1.2513211 0.30007291
0.99406552 -3.1094871 -1.2400308
0.2449977 0.1190908 0.87543762
0.40031594 1.0061601 0.74614233
0.71628135 -0.045531124 0.53749979
0.77287167 0.38948011 0.38431668
0.88729835 1.2690821 0.30177939
0.84781444 0.96556866 0.083141804
0.94937599 -3.1057274 -1.2400308
0.2085624 0.14783591 0.87670827
0.36467087 1.020561 0.74674481
0.7052384 0.18301859 0.55717736
0.74859852 0.50704163 0.39623296
0.8501575 1.2659737 0.30080426
0.83609581 1.1608934 0.11013138
0.89742827 -3.0992079 -1.239651
1.045314 -1.4426234 -1.1399238
0.17338696 0.18259194 0.8783254
0.32660201 1.0213543 0.74629295
0.69829458 0.42926151 0.57842213
0.73817825 0.71921754 0.41818392
0.81784576 1.2984041 0.3042171
0.82228237 1.3306581 0.13350368
0.84532994 -3.0944543 -1.239651
0.99729061 -1.4598556 -1.1444666
0.13185962 0.18212582 0.87786341
0.29070559 1.034055 0.74674481
0.67139423 0.5215252 0.58608419
0.72929388 0.93132633 0.44013488
0.81052637 1.5062716 0.15771079
0.92316663 -1.749715 -0.52310395
0.93770593 -1.5971715 -0.72437429
0.93495256 -1.625615 -0.9551537
0.95252019 -1.4418439 -1.1415758
0.099002324 0.19642533 0.8783254
0.25829428 1.0360848 0.74644357
0.66974068 0.74516439 0.60541344
0.7265985 1.1386635 0.46166778
0.75870603 1.3608708 0.310799
0.7967661 1.6242762 0.17384887
0.91280967 -1.4449942 -0.47530353
0.89659202 -1.6050024 -0.72645211
0.89883173 -1.5825993 -0.94755697
0.91131765 -1.4554858 -1.1452928
0.060125303 0.20996514 0.87867194
0.22135693 1.043154 0.74644357
0.66474777 0.9734354 0.62509102
0.72036678 1.3486392 0.48340964
0.75439262 1.5781759 0.33712649
0.78463346 1.7821802 0.19555175
0.86208975 -1.4855006 -0.48248911
0.87617373 -1.3475071 -0.68177938
0.88509524 -1.2614533 -0.88602352
0.90783024 -1.0400913 -1.058152
0.025098504 0.21272366 0.87844092
0.18933253 1.0473639 0.74629295
0.65615773 1.1318649 0.63867372
0.69772601 1.4063359 0.4890542
0.73126775 1.627808 0.34273326
0.77043766 1.8864433 0.20974219
0.90203524 -0.73687577 -0.36408174
0.87594664 -0.97907811 -0.61736774
0.88063502 -0.93520045 -0.82335067
0.87858403 -0.95240074 -1.0403936
-0.019562161 0.19715992 0.87705481
0.15204519 1.0527298 0.74614233
0.62170762 1.151257 0.6398927
-0.20133795 -0.71114367 0.39674079
0.74390346 1.9385998 0.21642005
0.89158636 -0.43370438 -0.31659377
0.88053888 -0.53178269 -0.53910398
0.87271905 -0.60251284 -0.75953817
0.83542973 -0.93786675 -1.0383286
-0.056776479 0.2189465 0.87786341
0.68299329 -1.8882055 0.60923141
0.11477054 1.0582339 0.74599171
0.58425164 1.1510895 0.63937032
-0.24746442 -0.7160359 0.39544129
0.50417763 0.64733988 0.4071039
0.50592935 0.65836042 0.22084653
0.71431273 1.9693111 0.2200371
0.88244539 -0.13847056 -0.27035558
0.87676299 -0.18645625 -0.47884798
0.871014 -0.23676707 -0.68926835
0.79214239 -0.92512304 -1.0366766
-0.09792649 0.22131163 0.87751687
0.67622793 -1.5359237 0.63356084
0.077915296 1.0658289 0.74599171
0.55029345 1.172695 0.6407634
-0.29163137 -0.71100098 0.39507008
0.45878598 0.61031944 0.40250468
0.45485342 0.5861513 0.21109569
0.67761183 1.9551536 0.21725476
0.87197953 0.12724403 -0.22880352
0.87642395 0.16656129 -0.41720676
0.86345899 0.056675337 -0.63305259
0.74594927 -0.93748873 -1.0403936
-0.13957594 0.19332172 0.87543762
0.6734277 -1.2261475 0.65497077
0.042225279 1.0529332 0.74448556
0.5174281 1.1680008 0.6398927
-0.33207226 -0.71880037 0.39358485
0.55049527 1.3672694 0.48257351
0.42405149 0.60529494 0.21280205
0.65726471 2.0106823 0.22448897
0.85979313 0.31571564 -0.19943607
0.87780643 0.46595371 -0.36491549
0.85895103 0.31034538 -0.58443379
0.69537121 -1.0378649 -1.062695
-0.17917967 0.20380609 0.87555313
0.66625804 -0.91569638 0.67638069
0.0049317479 1.0588443 0.74433494
0.33762524 0.32946217 0.56501353
-0.37460017 -0.70566285 0.39395618
0.34903368 0.39668429 0.37846315
0.38221267 0.592188 0.21036434
0.62290251 2.0104246 0.22365427
0.86280346 0.66166371 -0.14507484
0.8705101 0.72485435 -0.31989658
0.86169231 0.65425044 -0.51834226
0.84244466 0.501643 -0.73643351
-0.22282705 0.16832092 0.87301189
0.66444129 -0.62989819 0.69612229
-0.030487176 1.0481557 0.74297935
0.28642642 0.23514098 0.5561325
-0.41597983 -0.71707034 0.39209974
0.31400639 0.39461413 0.3776269
0.34780219 0.59002715 0.20938921
0.59733713 2.0328894 0.2261585
0.8588199 0.89115274 -0.10914648
0.87165147 0.99274975 -0.27314615
0.8672455 0.95835143 -0.45984745
0.86380351 0.93288797 -0.645576
-0.27030563 0.14402388 0.87104821
0.65397322 -0.37704909 0.7135005
-0.066513166 1.0601768 0.74328059
-0.46797803 -0.74639654 0.38838685
0.24425687 0.22911805 0.35922992
0.30059299 0.54790127 0.20329487
0.56611896 2.0504103 0.22782791
0.85335404 1.1388774 -0.070406318
0.86054993 1.1948137 -0.23816991
0.86312121 1.2143209 -0.41084862
0.85385036 1.1453307 -0.60138631
-0.31094941 0.15108892 0.8709327
0.64373082 -0.13614613 0.73004448
-0.10511908 1.0606543 0.74267811
-0.24841423 0.42681253 0.49958813
-0.2471815 -2.2653286 0.092055082
0.26080817 0.54895812 0.20256364
0.53289717 2.0563443 0.22782791
0.84623718 1.3610528 -0.035727501
0.85355753 1.4163396 -0.19973063
0.86349261 1.4896387 -0.35805142
0.85516292 1.4294543 -0.54191589
-0.35783845 0.1310613 0.86920005
0.63440806 0.098745488 0.74617147
-0.14464533 1.0573933 0.74177438
-0.2532216 0.58517784 0.51388276
-0.29585531 -2.2544293 0.092264175
0.18718711 0.36665583 0.17891753
0.50185108 2.0740862 0.22949743
0.83746129 1.5596642 -0.0047979355
0.84083456 1.5851053 -0.17064154
0.825234 1.4730936 -0.36222959
0.84774101 1.6359044 -0.49896502
-0.39596921 0.12349732 0.86827594
0.63074511 0.32089514 0.76146424
-0.17805065 1.0569412 0.7411719
-0.29127359 0.57150555 0.5118407
-0.34005201 -2.2583511 0.091009855
-0.33030638 -2.2063849 -0.14335072
0.47271854 2.0754731 0.22894096
0.8247152 1.6851466 0.014572144
0.84451413 1.8252848 -0.12873936
0.78746355 1.4248741 -0.37248516
0.84142578 1.8047729 -0.46386087
1.061715 -0.16208883 -1.0689857
-0.43670765 0.13102666 0.86816043
0.62234873 0.53981537 0.77647901
-0.21858959 1.0500852 0.73996699
-0.32485634 0.60190576 0.51388276
0.84218782 -1.93286 0.21969938
-0.38906014 -2.2490668 0.091009855
-0.38024315 -2.2029862 -0.14408207
0.4418225 2.0934215 0.23061037
0.8155874 1.8641008 0.042377591
0.82728016 1.9451947 -0.1083076
0.84257537 2.0497978 -0.2513175
0.83590132 2.0052657 -0.42214894
1.0231458 -0.13080083 -1.062747
-0.46947271 0.17170683 0.87000859
0.605479 0.69156337 0.78676689
-0.25640672 1.0550245 0.73966575
-0.36757985 0.59369159 0.51221192
-0.1359354 -0.69149178 0.25679195
-0.098655321 -0.50044948 0.067756891
0.40686259 2.0900903 0.2292192
0.80160111 2.0019665 0.063622236
0.81674981 2.1040647 -0.080950022
0.82216316 2.140161 -0.23460472
0.83240902 2.2095413 -0.37961113
0.98049402 -0.14009976 -1.0658665
0.58722854 0.79118913 0.7934401
-0.29747316 1.0239447 0.73665339
0.75846416 -1.8788668 0.45556986
-0.57829201 -2.7268472 0.28778648
-0.40488228 0.58430022 0.51054108
0.82466841 -1.2666305 0.28526711
-0.17031333 -0.67053729 0.25825536
-0.12818925 -0.45822117 0.072144866
0.38390699 2.1228676 0.2331146
0.79330802 2.1390874 0.084866881
0.80454588 2.2134976 -0.06224978
0.81150854 2.2589519 -0.21219432
0.81924725 2.3104992 -0.3589617
0.94492257 -0.13825037 -1.0663121
1.0555713 0.88296312 -1.0120466
0.55248344 0.81676495 0.79483038
-0.33445129 1.033051 0.73665339
0.74551338 -1.5645823 0.48092306
-0.4422268 -1.7929759 0.37015355
-0.5005548 0.36380848 0.48844945
0.81080419 -0.98077303 0.3133111
-0.22059911 -0.69697773 0.2544924
-0.13912483 -0.29406917 0.091646671
0.34741899 2.1119967 0.23061037
0.76653439 2.1832194 0.091115236
0.78566277 2.3061256 -0.046666384
0.79609758 2.372617 -0.19092357
0.81155443 2.4720953 -0.32550955
0.90280515 -0.14144093 -1.0680945
1.0200205 0.9044795 -1.0077453
0.52201843 0.8680653 0.79802793
-0.37968323 1.0094173 0.73409283
0.73415834 -1.2563229 0.50578856
0.090639584 1.0325737 0.62143415
0.79443294 -0.73452425 0.33740532
-0.2662935 -0.69983077 0.25323796
0.31602311 2.1264913 0.23172331
0.73975223 2.2254758 0.097051263
0.7586897 2.3443153 -0.040779233
0.76779366 2.40097 -0.18636549
0.78919196 2.53509 -0.31311989
0.86334682 -0.12123286 -1.0645297
0.98259568 0.90875775 -1.0077453
1.0776565 1.7313888 -0.96923184
0.62659693 -1.8285401 0.69015938
0.48660082 0.85359871 0.79663771
-0.41290686 1.0116754 0.73364097
0.72829646 -0.9746393 0.52854145
0.069988206 1.0918046 0.62613583
-0.93395627 -1.0281776 0.35274303
0.78969175 -0.45742592 0.36465943
-0.30381417 -0.69407088 0.25302899
0.2110875 1.7659199 0.34809625
0.28494599 2.1187856 0.22977567
0.71438038 2.245604 0.099550605
0.73177207 2.3526747 -0.040086627
0.75058103 2.4674215 -0.17421079
0.76540208 2.5587759 -0.30899
0.82689089 -0.12675713 -1.0667577
0.95145047 0.92024696 -1.0058336
1.0523019 1.7694275 -0.9600563
0.61954749 -1.4939452 0.71128345
0.45229152 0.87950921 0.79802793
-0.45443508 1.0038308 0.73228544
0.71824914 -0.69030917 0.55145675
0.033671591 1.1015123 0.62630999
0.78221822 -0.16783981 0.39309847
-0.3491624 -0.69465655 0.25198364
0.17806676 1.7789809 0.3488276
0.25197673 2.1257496 0.22977567
0.67958653 2.2373555 0.09736371
0.69770265 2.346344 -0.042164445
0.72083473 2.4842954 -0.17193174
0.73824972 2.5890651 -0.30362117
0.78568763 -0.12176393 -1.0667577
0.91218609 0.90935576 -1.0096571
1.0149747 1.7486286 -0.96668291
0.61117083 -1.1891806 0.73049867
0.41579005 0.89176762 0.79844505
-0.49554759 0.99808317 0.73108047
0.70876479 -0.4179363 0.57339698
-6.7152083e-05 1.1230338 0.62752897
-0.64774692 0.41994625 0.49012017
0.76985157 0.066355884 0.41600764
-0.39201736 -0.68340552 0.25219274
0.14679921 1.7999189 0.35053396
0.22449252 2.1579957 0.23339283
0.65205604 2.2720776 0.10204995
0.67488492 2.4061539 -0.032468081
0.69451135 2.5206251 -0.16585433
0.70964688 2.6097949 -0.30031717
0.74450302 -0.11662062 -1.0667577
0.87404704 0.90824968 -1.0110908
0.98332083 1.7740237 -0.96107578
1.0713485 2.4704347 -0.92803049
0.60769635 -0.913055 0.74793237
0.38367373 0.89732432 0.79844505
-0.52938062 0.9987942 0.73047799
0.70176899 -0.18793626 0.59192431
-0.037883688 1.1007092 0.62491685
-0.67364496 0.45770869 0.4929049
0.76484668 0.29975089 0.4389168
-0.43335682 -0.69472849 0.25010216
0.11668319 1.8024384 0.35004652
0.18911254 2.1312664 0.22866261
0.62903357 2.3041291 0.10642385
0.65498215 2.4535785 -0.024849534
0.68393672 2.6202025 -0.29907823
0.71072453 -0.1004904 -1.0640838
0.8432318 0.9219954 -1.0087013
0.95297575 1.7701215 -0.96311474
1.0431951 2.4662862 -0.93019485
0.60005063 -0.63423371 0.76549327
0.3455261 0.90000612 0.79816699
-0.57999116 0.9586972 0.7265619
0.69515139 0.078330122 0.61337698
-0.082425028 1.0738683 0.62178242
0.74811608 0.47659531 0.45609879
-0.47402364 -0.6734677 0.25135648
0.081687413 1.8061472 0.34955895
0.15748903 2.1443784 0.22949743
0.59500617 2.300107 0.10486174
0.62808257 2.4863322 -0.020001292
0.63878882 2.5463221 -0.16281569
0.65589714 2.643039 -0.29536128
0.66961843 -0.095072195 -1.0640838
0.8066445 0.93269575 -1.0072675
0.91923696 1.7784729 -0.96209526
1.0127711 2.4800112 -0.92748952
0.59252834 -0.36936361 0.78216344
0.30737412 0.90283024 0.79788893
-0.61984605 0.95922393 0.7258088
0.68342084 0.29314172 0.63060409
-0.11390765 1.1054963 0.62387204
-0.2846829 0.35636476 0.3613205
0.048455998 1.817729 0.35004652
0.12505463 2.1537406 0.22977567
0.56694931 2.3292549 0.10861087
0.5908072 2.4610302 -0.02554214
0.5996387 2.5094867 -0.17117202
0.62344337 2.6409392 -0.29701328
0.62667435 -0.10302472 -1.0672033
0.76906002 0.93583173 -1.0077453
0.88527954 1.7850304 -0.96158552
0.98243266 2.4938421 -0.92478418
0.59169215 -0.1133319 0.79832464
0.27711189 0.91853642 0.79858404
0.67076302 0.4498612 0.64311814
-0.16600104 1.0234219 0.61586171
-0.61344558 1.1058671 0.55268252
0.72636324 0.84718311 0.49224007
-0.3036879 0.42807516 0.36821938
0.016119502 1.8108974 0.34834003
0.096457988 2.1582747 0.22949743
0.53574556 2.3149061 0.10548663
0.57008684 2.5008905 -0.019308686
0.59717798 2.6477587 -0.29660034
0.82843548 1.5874035 -0.67818093
0.83228999 1.6172209 -0.8395195
0.85596704 1.7891072 -0.96158552
0.9537366 2.4861708 -0.92803049
0.57872963 0.08809977 0.81092268
0.2393727 0.92357695 0.79844505
0.66068101 0.65666771 0.65969521
-0.30604884 0.5937174 0.57650661
-0.62635404 1.2004662 0.56085086
0.71599084 1.0416449 0.51119936
-0.31689906 0.54757261 0.38013554
-0.012524016 1.8420366 0.35126531
0.06499473 2.1717136 0.23033214
0.50753456 2.3422997 0.1089232
0.53888243 2.5087423 -0.018962383
0.55349982 2.5859625 -0.1582576
0.57160538 2.6824157 -0.29040551
0.82025635 1.7776322 -0.63540173
0.83494508 1.8816699 -0.77500105
0.83699149 1.8992559 -0.93354964
0.92321068 2.4983041 -0.92586637
0.56663811 0.28552485 0.82326627
0.19861953 0.91308421 0.79719383
0.6579268 0.90284044 0.67952269
-0.34275132 0.6106084 0.57720315
-0.65502232 1.2375821 0.56344992
0.71313918 1.2773861 0.53430611
-0.35654774 0.55288446 0.37971747
-0.052965924 1.8230637 0.34785247
0.02485463 2.1486626 0.22588027
0.47388506 2.340688 0.10767353
0.50696731 2.5128384 -0.019308686
0.50325465 2.4936111 -0.17762923
0.54070002 2.6883254 -0.29040551
0.81116825 1.9523604 -0.59618759
0.81106299 1.9538575 -0.75827408
0.81653768 1.9941115 -0.90959167
0.89162809 2.5029256 -0.92586637
0.55080587 0.410997 0.8310287
0.16464965 0.90953445 0.79649866
0.64430797 1.0298398 0.68959892
-0.38278577 0.5895043 0.5745911
-0.68660015 1.2445881 0.56326425
0.68847746 1.3233322 0.53845346
-0.39019343 0.55893564 0.37950838
-0.084491834 1.8204422 0.34663367
0.00042036176 2.17084 0.22810614
0.45012623 2.3654401 0.11079776
0.48184088 2.5277648 -0.017577171
0.48335862 2.535495 -0.17041242
0.51347297 2.6896408 -0.29123139
0.80688345 2.1186039 -0.55875587
0.80756408 2.1252241 -0.71669555
0.79251432 2.0289986 -0.90143585
0.86630058 2.5184016 -0.92261982
0.52409762 0.49786788 0.83624607
0.1284235 0.92281657 0.79691577
0.60520989 1.0217042 0.6884613
-0.4532699 0.46930641 0.56292391
-0.44837213 0.48919839 0.37093711
-0.12329794 1.8094867 0.34419584
-0.035197191 2.1673071 0.22643673
0.41883522 2.3756707 0.11142266
0.44843611 2.5243468 -0.019308686
0.46463344 2.6052668 -0.1578778
0.48105794 2.6880872 -0.2928834
0.80258995 2.3086185 -0.51597691
0.78146058 2.174412 -0.7057035
0.75891608 2.032191 -0.90194559
0.83331585 2.5137193 -0.92532516
0.49362716 0.55719209 0.83968192
0.092267886 0.93622696 0.79733282
0.57133985 1.0471897 0.69008648
-0.52660286 0.34175336 0.55056012
0.5191347 0.71919543 0.47663808
-0.49261779 0.47763547 0.36863744
-0.15836142 1.8140969 0.3437084
-0.069428138 2.1696804 0.22560203
0.3872014 2.3840771 0.11173499
0.38073301 2.3531446 -0.051168203
0.429914 2.5942535 -0.16129637
0.45408541 2.7135034 -0.28875351
0.78621501 2.4138145 -0.49280477
0.7901274 2.4404054 -0.64070725
0.72350168 2.0240481 -0.90551376
0.80269706 2.5243747 -0.923702
0.45781177 0.58113217 0.84082717
0.052124873 0.93023103 0.79635966
0.51910716 0.95866543 0.68228555
-0.57834226 0.30342665 0.54620665
0.57832485 1.3244817 0.53687352
-0.5227828 0.52216125 0.3724004
-0.19537672 1.8111434 0.3422457
-0.10367126 2.1721835 0.22476733
0.35480192 2.3887305 0.11142266
0.38829726 2.5506866 -0.016884565
0.40387991 2.6256757 -0.15635848
0.423693 2.7217593 -0.28834057
0.76652545 2.4939926 -0.47542584
0.77204847 2.5298588 -0.61967897
0.69173479 2.0389502 -0.90296507
0.76997417 2.5218368 -0.92586637
0.42863202 0.61018836 0.84235424
0.017659407 0.92521691 0.79552549
0.49892339 1.034695 0.68813628
-0.96883684 -1.0732958 0.42117584
0.55179405 1.3550513 0.53944093
-0.42072165 1.0565428 0.42947304
-0.2315281 1.7917017 0.33883286
-0.13324335 2.1736121 0.2239325
0.33106017 2.4118671 0.11423433
0.36098588 2.5543945 -0.017230868
0.37356097 2.6139693 -0.15977705
0.3936879 2.7100494 -0.29205739
0.75079554 2.5687737 -0.61107659
0.65720761 2.0073845 -0.91265011
0.74203146 2.5205743 -0.92748952
0.39313194 0.6343472 0.84349948
-0.02177833 0.92341471 0.79483038
0.46231216 1.0428473 0.68829876
-0.64483631 0.34936127 0.5486446
0.33788392 0.30926037 0.43358457
-0.45204899 1.0872691 0.43177259
-0.26117656 1.8178467 0.3410269
-0.16901278 2.1706104 0.2222631
0.29874983 2.4167292 0.113922
0.33209586 2.5726311 -0.01515305
0.33704257 2.5956488 -0.16471481
0.36452982 2.7242637 -0.29040551
0.7186166 2.5671706 -0.46072054
0.72304463 2.5950894 -0.60581946
0.59794867 1.8604482 -0.9534297
0.7095654 2.5201659 -0.92911267
0.35744515 0.65665764 0.84451753
-0.058274161 0.93540961 0.79510844
0.43049887 1.0786304 0.69073659
-0.66385674 0.43677872 0.55561012
0.29250988 0.28270486 0.43022716
-0.51275623 1.006579 0.421947
-0.29524529 1.8268139 0.3410269
-0.20432714 2.1696661 0.22087193
0.26560616 2.417851 0.11298466
0.30205253 2.585192 -0.014114261
0.30875793 2.6158457 -0.16205597
0.33168817 2.7213731 -0.29247046
0.68628877 2.5667791 -0.46205735
0.69414043 2.6138391 -0.60247397
0.55841243 1.8338735 -0.96209526
0.6813553 2.5445411 -0.923702
0.32736373 0.67812407 0.84553558
-0.093710095 0.92687351 0.79399621
0.40347031 1.1096606 0.69284934
-0.6927464 0.46304753 0.55717736
-0.68018204 0.50983453 0.36696494
-0.32493532 1.832683 0.34078312
-0.23499429 2.1676006 0.21948063
0.23785667 2.4219434 0.11267233
0.27013305 2.568022 -0.018269777
0.28205848 2.6217303 -0.16205597
0.30616856 2.7310061 -0.29164445
0.6651969 2.6041183 -0.45448184
0.67047256 2.635725 -0.5981729
0.52790934 1.8313596 -0.96413422
0.65275472 2.5397749 -0.92640734
0.28592908 0.66726351 0.84439027
-0.13192448 0.93134028 0.79371816
0.36644816 1.1142347 0.6926868
-0.73054582 0.47812635 0.36236572
-0.36521158 1.8189011 0.33785784
-0.26986384 2.1688268 0.2183677
0.20599891 2.4290779 0.11267233
0.24098057 2.5846448 -0.016538262
0.24963468 2.622956 -0.16319549
0.27673674 2.7436144 -0.29040551
0.63538808 2.6173596 -0.45269942
0.64146411 2.6527398 -0.5953052
0.49766272 1.8583696 -0.95852709
0.62235194 2.5510726 -0.92478418
0.25341666 0.70564151 0.84642631
-0.17370948 0.92039484 0.79232788
0.33087823 1.1267881 0.69317436
-0.40033334 1.8244227 0.33737028
-0.30317366 2.1759145 0.21808946
0.17328277 2.4324784 0.11204743
0.2061905 2.5764081 -0.019308686
0.21675484 2.6223905 -0.16471481
0.24123734 2.7296252 -0.29494834
0.6000067 2.6000261 -0.45804679
0.61150485 2.6641226 -0.59387159
0.46338704 1.862654 -0.95903683
0.59166265 2.5605845 -0.923702
0.21741128 0.69405198 0.84528106
-0.20709115 0.92197436 0.79191083
0.29143214 1.0895052 0.68959892
-0.62914217 1.1190929 0.6139462
-0.44000721 -2.8168316 0.11463296
-0.43326005 1.8191572 0.3356638
-0.33445412 2.1722796 0.21642005
0.14331788 2.4272456 0.11017287
0.1789206 2.5806966 -0.019654989
0.19096774 2.6323891 -0.16395521
0.21667232 2.7433438 -0.29329634
0.56391895 2.5551705 -0.46963286
0.58638656 2.6766908 -0.59195995
0.43360788 1.864255 -0.9600563
0.56833696 2.5845039 -0.91829133
0.17959501 0.70323396 0.84540832
-0.24812275 0.91521811 0.7907986
0.25469026 1.0964521 0.68959892
-0.65162808 1.1792489 0.61847377
-0.4797864 1.784833 0.33005702
-0.37533313 2.1529336 0.2122463
0.11102475 2.4328048 0.10986054
0.14719087 2.586129 -0.020001292
0.16033418 2.6416039 -0.16357541
0.18057849 2.7277036 -0.29825222
0.53913784 2.5955794 -0.46161175
0.55582488 2.6844537 -0.59148192
0.39897802 1.8668762 -0.96107578
0.532731 2.5677328 -0.92478418
0.14258304 0.7164706 0.84579009
-0.28690058 0.91832501 0.79038155
0.21835522 1.1054897 0.68976146
-0.69354361 1.1705049 0.61673242
-0.91531104 0.39974764 0.34919512
-0.53153896 1.7335553 0.32225633
-0.40707743 2.1661236 0.21280289
0.077820241 2.4346426 0.1089232
0.11316865 2.5821049 -0.02207911
0.12652385 2.6375675 -0.16585433
0.15075807 2.7388515 -0.29742622
0.52060175 2.6666737 -0.44646084
0.52567059 2.6942339 -0.5905261
0.36545491 1.875322 -0.96056604
0.50324929 2.5832345 -0.92207885
0.10914174 0.7189703 0.84553558
-0.32602599 0.8970148 0.78829616
0.19117114 1.133176 0.69154918
-0.67263943 1.3586375 0.45309639
-0.57543308 1.692529 0.31591821
-0.44127604 2.153342 0.20974219
0.050084237 2.4393339 0.10861087
0.086364053 2.588604 -0.02207911
0.097565025 2.6344862 -0.16775358
0.117948 2.718617 -0.30320811
0.49444008 2.6738045 -0.44601524
0.50034958 2.7051508 -0.58909249
0.33642879 1.8810319 -0.96056604
0.47232497 2.5677335 -0.92803049
0.069068551 0.71680617 0.8448993
-0.36202887 0.91203624 0.78871328
0.15340683 1.1346282 0.69106162
-0.31891659 -1.2042108 0.27400994
-0.69881749 1.4015477 0.45665038
-0.67176414 1.4932189 0.28910315
-0.4836438 2.1306748 0.20501208
0.016389392 2.4394865 0.10736108
0.051324844 2.5809975 -0.024849534
0.065541819 2.6383219 -0.16851318
0.081525214 2.7033958 -0.308164
0.46427605 2.6838198 -0.44512391
0.46837372 2.7056105 -0.5905261
0.30143815 1.882122 -0.96209526
0.44596064 2.5985417 -0.92099667
0.029755842 0.718705 0.84451753
-0.40526384 0.89816231 0.78704494
0.11763439 1.1459856 0.69138664
-0.27263996 -0.75054497 0.31903839
-0.72585934 1.440707 0.4597863
-0.69564313 1.5417309 0.29397857
-0.51656413 2.1404562 0.20501208
-0.012990057 2.4570107 0.1089232
0.022938237 2.6002753 -0.022771716
0.036396828 2.653703 -0.16699386
0.055480525 2.7300775 -0.30403411
0.43848783 2.7149477 -0.43933094
0.43912095 2.7195067 -0.58861446
0.26994225 1.9003924 -0.95903683
0.41241759 2.5935967 -0.92424321
-0.0061680377 0.7098456 0.84349948
-0.44228947 0.88696605 0.78565466
0.084687337 1.1446725 0.69073659
-0.35591388 -0.96295702 0.2967217
-0.78273976 1.362271 0.45016968
-0.70789289 1.6096772 0.30153561
-0.55507612 2.1148126 0.20000374
-0.048980586 2.4294536 0.10329962
-0.011603527 2.5765202 -0.028312445
0.0083607212 2.6547348 -0.16813338
0.027689189 2.7310693 -0.30527306
0.41010308 2.7108822 -0.44155908
0.41155341 2.7192786 -0.59004831
0.2374303 1.8893654 -0.96362448
0.38091451 2.5765409 -0.93073583
-0.042637862 0.72569484 0.84400851
-0.48877633 0.8618387 0.78315222
0.046489734 1.1445781 0.69008648
-0.41218656 -1.010077 0.29099441
-0.86161143 1.2324265 0.43469942
-0.73050421 1.6601394 0.30665481
-0.58631307 2.1305363 0.20083845
-0.079322226 2.4433761 0.10423696
-0.041904777 2.5883811 -0.027619839
-0.02658321 2.6475019 -0.17117202
-0.011871509 2.7048745 -0.31270683
0.37564763 2.7002213 -0.44556963
0.38199812 2.7314727 -0.58861446
0.20845708 1.9192033 -0.95750761
0.35604373 2.6132801 -0.92207885
-0.085358769 0.7124114 0.84260875
-0.53142238 0.85235155 0.781762
-0.0069285519 1.0744947 0.6835857
-0.45240551 -0.98108536 0.29296935
-0.90372074 1.2246037 0.43260884
-0.7680912 1.6613497 0.3054359
-0.63215572 2.099081 0.19471705
-0.11160199 2.4497621 0.10392451
-0.074654043 2.5908253 -0.028658748
-0.059610806 2.6480086 -0.17269146
-0.043188527 2.7110298 -0.31311989
0.32373804 2.6096706 -0.46829593
0.34756944 2.7209959 -0.59291577
0.17270701 1.9169986 -0.9600563
0.32406995 2.6162169 -0.92316103
-0.11589277 0.72928959 0.84324497
-0.57033396 0.83582133 0.77995467
-0.440898 -0.74867994 0.53081673
-0.49253872 -0.98251063 0.29198182
-0.94253111 1.2096338 0.42989111
-0.94110155 1.2141873 0.24668658
-0.66818714 2.0833595 0.19109988
-0.14492366 2.4340613 0.1001755
-0.10548738 2.5826871 -0.031429172
-0.090757266 2.6379731 -0.17610991
-0.061021954 2.750165 -0.30609906
0.29534245 2.6078911 -0.47007847
0.32454053 2.7419302 -0.58909249
0.14464444 1.9270915 -0.95903683
0.29944232 2.6314549 -0.92045569
-0.15787444 0.72020245 0.84209973
-0.5742445 -1.1397057 0.27499747
-0.99662983 1.165115 0.23888576
-0.70548147 2.0806057 0.18915224
-0.17364131 2.454041 0.10204995
-0.13932419 2.5815709 -0.033160686
-0.13053328 2.6140866 -0.18256712
-0.091164 2.7602816 -0.30568612
0.26800081 2.6319375 -0.46606791
0.29173246 2.7392697 -0.59148192
0.11012794 1.9307966 -0.9600563
0.26750985 2.634604 -0.92153788
-0.19640973 0.7268526 0.84197247
-0.2812441 0.35498059 0.42607975
-0.7604416 2.0233333 0.17913544
-0.21530685 2.4264867 0.096114039
-0.17163664 2.5862873 -0.033853292
-0.16532043 2.609314 -0.18522596
-0.12850946 2.7440867 -0.31105494
0.23084927 2.6123452 -0.47230649
0.25888005 2.7367373 -0.59387159
0.077759966 1.9440596 -0.95852709
0.23728707 2.6453838 -0.92045569
-0.23712423 0.69932753 0.83968192
-0.30295283 0.41508794 0.4314121
-0.23678491 2.4549563 0.099550605
-0.2015886 2.5822935 -0.03593111
-0.18888578 2.6280403 -0.18294704
-0.15009153 2.7683144 -0.307338
0.20457825 2.620374 -0.47186089
0.23212321 2.7408853 -0.59434938
0.050693892 1.9582099 -0.95648813
0.21068075 2.6514921 -0.92045569
-0.27392384 0.71404332 0.84006369
-0.28946871 0.64783043 0.64458084
-0.31031901 0.55984581 0.44523668
-0.27387339 2.4448149 0.096426368
-0.23392391 2.5872455 -0.036623716
-0.24180998 2.5592446 -0.1985203
-0.18651287 2.7561479 -0.31188095
0.17478594 2.6333239 -0.47052407
0.19965714 2.7404768 -0.59626102
0.016695108 1.9641504 -0.95699787
0.18010515 2.6605992 -0.91991472
-0.31481802 0.71141613 0.83930016
-0.3375423 0.61619133 0.64116794
-0.33883381 0.61159098 0.4495815
-0.30672884 2.4500258 0.095801592
-0.26679546 2.5904262 -0.037662625
-0.295809 2.4888356 -0.21447337
-0.21606818 2.7685997 -0.31105494
0.17586401 2.7753301 -0.43888533
0.17032081 2.7534149 -0.59482741
-0.016389683 1.9739796 -0.95648813
0.14867489 2.6660705 -0.92045569
-0.35905674 0.69537163 0.83764583
-0.42769346 0.41235155 0.62329072
-0.38201392 0.60151023 0.44760656
-0.34452355 2.4382834 0.092364907
-0.3002238 2.5918403 -0.039047718
-0.32250255 2.5149 -0.2110548
-0.25427261 2.7510793 -0.31683671
0.14024279 2.7618477 -0.4437871
0.13784564 2.7532463 -0.59673905
-0.04851862 1.9876873 -0.95495892
0.11316831 2.65482 -0.92586637
-0.39273927 0.69948691 0.83739138
-0.48938945 0.30635113 0.613702
-0.42311621 0.57671869 0.44424915
-0.37788665 2.4253678 0.088928342
-0.33308756 2.578845 -0.042857051
-0.36166158 2.4813123 -0.21941125
-0.29209909 2.7192955 -0.32550955
0.11493452 2.7720475 -0.44289589
0.11157862 2.7596672 -0.59673905
-0.075803027 2.0003309 -0.9534297
0.089814231 2.6744061 -0.92207885
-0.442029 0.66440523 0.83446455
-0.54445195 0.25427815 0.60850137
-0.50368857 0.41829893 0.42706728
-0.41197699 2.4271843 0.087678671
-0.36829159 2.5748525 -0.045281172
-0.37932354 2.5377026 -0.2099154
-0.32676315 2.7152388 -0.32840049
0.079632662 2.7607145 -0.44735205
0.077662423 2.7540734 -0.60008454
-0.10826568 2.0123699 -0.95241022
0.053744193 2.6615345 -0.92803049
-0.48375884 0.66050041 0.83357376
-0.92141718 -1.065064 0.49668741
-0.44608843 2.4291334 0.086429
-0.4024232 2.5747762 -0.047012687
-0.39547446 2.5978653 -0.19965982
-0.36318192 2.7057016 -0.33253038
0.048058219 2.7646477 -0.44824326
0.043677639 2.7486165 -0.60342979
-0.14400241 2.0114036 -0.95495892
0.029875442 2.697335 -0.91991472
-0.5260359 0.632155 0.83115596
-0.5910446 0.3791818 0.61743999
-0.48659998 2.393924 0.079243302
-0.43498394 2.5640507 -0.050475597
-0.42279872 2.6040843 -0.20003963
-0.39016563 2.7118242 -0.33294332
0.017942101 2.7562435 -0.45180821
0.016428895 2.7515709 -0.60438561
-0.17356241 2.0149672 -0.95597839
0.0072720125 2.7190118 -0.91558599
-0.55739468 0.66913968 0.83293748
-0.61327475 0.4549484 0.62296563
-0.98035741 -0.95123243 0.28368711
-0.52263045 2.3905001 0.077056289
-0.47037971 2.5604746 -0.052899718
-0.46034986 2.5929985 -0.20421779
-0.42960745 2.6932089 -0.33913815
-0.017614827 2.7453175 -0.45626438
-0.023052081 2.725692 -0.61298823
-0.20593151 2.0273552 -0.95495892
-0.028848723 2.7064981 -0.92153788
-0.65794951 0.44401816 0.62117791
-0.67199582 0.39173102 0.42035246
-0.56343383 2.3721375 0.072370052
-0.55223906 2.4085085 -0.082681537
-0.4886483 2.6120625 -0.20231867
-0.46513498 2.687845 -0.34244204
-0.04678724 2.7590399 -0.45492756
-0.052302077 2.7394125 -0.61155438
-0.23625901 2.0473349 -0.95190048
-0.053246401 2.738802 -0.91450405
-0.59327441 2.373229 0.071120381
-0.56772012 2.4546647 -0.075755477
-0.51535583 2.6204512 -0.20231867
-0.49573046 2.6830988 -0.34533298
-0.080110855 2.7396777 -0.46116614
-0.080625579 2.7389278 -0.61346602
-0.26775077 2.0437274 -0.95495892
-0.083552517 2.7309475 -0.91883254
-0.57142776 1.0482335 0.67058408
-0.73082787 0.46316376 0.42568481
-0.63312918 2.3589501 0.067058802
-0.60605443 2.4441142 -0.07956481
-0.55724978 2.5966816 -0.20915568
-0.53914773 2.6537795 -0.35400581
-0.10926507 2.753619 -0.45982933
-0.11540237 2.7322378 -0.6172893
-0.29641634 2.0695109 -0.95037127
-0.1152879 2.7355421 -0.91991472
-0.61043674 1.0506568 0.66993397
-0.66825581 2.35988 0.065496802
-0.63054103 2.4768291 -0.075409174
-0.59209251 2.5955207 -0.21143472
-0.57195979 2.6581748 -0.35524476
-0.13938576 2.7639027 -0.45938361
-0.14612056 2.7406645 -0.6172893
-0.32492584 2.0953827 -0.94578362
-0.14804572 2.736546 -0.92207885
-0.63936651 1.0690362 0.67074662
-0.71419382 2.3125136 0.056124091
-0.69076991 2.384577 -0.094109416
-0.62923837 2.5725112 -0.21789193
-0.61191851 2.6259115 -0.36433053
-0.18347141 2.7073531 -0.47453463
-0.17713366 2.7311444 -0.62159061
-0.35950959 2.0809112 -0.95190048
-0.16710097 2.7698236 -0.91450405
-0.67726409 1.0755595 0.67042154
-0.75639063 2.2931364 0.051125407
-0.70912349 2.436249 -0.08649075
-0.66918796 2.5567288 -0.22320962
-0.23023972 2.6597579 -0.48790312
-0.21262498 2.7229826 -0.62589192
-0.39419684 2.0846558 -0.9534297
-0.19662988 2.7821445 -0.91342187
-0.78227931 2.3236022 -0.10934651
-0.70991528 2.5392623 -0.22890711
-0.28008264 2.603024 -0.50349951
-0.24552354 2.7243004 -0.62780356
-0.42889053 2.0885332 -0.95495892
-0.23302041 2.7705152 -0.91937351
-0.67164421 1.3499886 0.51198936
-0.7507214 2.5074358 -0.23726356
-0.31662497 2.5770602 -0.51152062
-0.27676347 2.7151434 -0.63210464
-0.45237857 2.1134501 -0.95037127
-0.25761688 2.7836461 -0.91775036
-0.71417725 1.3375555 0.50961947
-0.35122001 2.5750062 -0.51419449
-0.30754334 2.7241623 -0.63210464
-0.4848153 2.1249709 -0.94986153
-0.40485063 2.5095768 -0.5320189
-0.34830344 2.6998012 -0.64070725
-0.52274334 2.1180799 -0.95444918
-0.42055491 2.5713136 -0.51954174
-0.43596771 2.6167736 -0.51062942
-0.46190515 2.6431346 -0.50661898
0.83451962 -1.7274306 0.31747055
0.82322615 -1.3898245 0.3486588
0.73100114 -1.8017619 0.53964394
0.8102051 -1.0899156 0.37631989
0.72693026 -1.4781796 0.56389362
0.80061752 -0.83432484 0.39989686
0.71634632 -1.1717683 0.58678764
0.79163909 -0.53456777 0.42755795
0.70292157 -0.90702659 0.60651869
0.77833426 -0.28828132 0.45020652
