# .PCD v0.7 - Point Cloud Data file format
VERSION 0.7
FIELDS x y z
SIZE 4 4 4
TYPE F F F
COUNT 1 1 1
WIDTH 506
HEIGHT 1
VIEWPOINT 0 0 0 1 0 0 0
POINTS 506
DATA ascii
0.63646698 4.6639838 1.0083114
0.85866481 2.5875902 0.4604364
0.65806293 4.4621744 -0.070430517
-0.71660143 5.1062193 -0.5790537
-0.71796376 5.1278715 -1.1036446
-0.57758415 2.9055023 -1.7957563
0.53307414 4.5867529 1.0091776
0.74211174 2.5632687 0.46038026
0.58002329 4.1322856 -0.077601135
-0.82431871 5.0856261 -0.57961506
-0.82560223 5.1072941 -1.1044531
-0.6878255 2.7908745 -1.8038898
0.7186439 1.6034776 1.6382072
0.41449094 4.657136 1.0081013
0.62740862 2.5194674 0.46023059
0.49386162 3.8602653 -0.083472073
-0.93349189 5.0893683 -0.57921416
-0.93270189 5.0751467 -1.1059549
-0.82532966 3.1525357 -1.7760253
0.59858763 1.5776811 1.6386387
0.30391097 4.6503468 1.0080489
0.41562939 3.4854321 0.46482384
0.26888573 5.0155635 -0.057209671
-1.0404401 5.0516033 -0.58049721
-1.0400138 5.0433884 -1.1074564
-0.9473393 3.2678072 -1.7668376
0.49205983 1.5937366 1.6378372
0.20315886 4.7091393 1.0071564
0.31417143 3.5120215 0.46499223
0.32658485 3.3781593 -0.093869448
-1.1322846 5.01897 -0.58161992
-1.1320797 5.0147657 -1.1088426
-1.0446937 3.232955 -1.7690969
0.36903799 1.6006211 1.6372821
0.09066999 4.7270288 1.006789
0.32748449 2.0673168 0.45825669
0.074447155 4.9092312 -0.059181631
-1.230261 4.7723036 -0.59132344
-1.1821747 3.7051671 -1.184387
-1.1343262 2.6557527 -1.8123245
0.24746747 1.5920285 1.6372204
-0.013487637 4.649694 1.0076814
0.33772776 0.53443098 0.45110953
-0.049786925 5.0750217 -0.05523777
-1.2244114 1.974201 -0.70351464
1.2762063 5.005343 -0.94500333
-1.1634929 0.50234413 -1.3695519
-1.2444235 2.4713342 -1.8258801
0.14338632 1.5833082 1.6372204
-0.11434984 4.719512 1.0066577
1.1994582 4.8621116 0.11518931
-0.1452176 5.0951195 -0.054610372
1.1801908 5.014329 -0.41303295
-1.1950161 -1.4885831 -0.84241027
1.1718073 5.0805616 -0.94043773
-1.1325797 -3.1212358 -1.5790894
-1.3534361 2.6685786 -1.8106678
0.020516321 1.5914857 1.6366653
-0.22118586 4.670804 1.0071826
0.3408305 -2.4893615 0.43701166
1.2016881 3.9394197 0.1000821
-0.2514593 5.0564942 -0.055282593
1.0615476 5.0801039 -0.41029686
1.0587721 5.1026955 -0.93856996
1.1499922 4.3602014 -1.519676
-1.4642234 2.4709659 -1.8252776
-0.10136256 1.5881602 1.6364803
-0.33088192 4.6563797 1.0072614
0.41539764 -5.3199062 0.42378378
1.0961881 3.8642104 0.099059522
-0.36004001 5.0461674 -0.055327415
0.94769317 5.1106238 -0.40879196
0.95398331 5.057827 -0.94023019
1.15766 3.3482354 -1.5897448
-1.5812502 2.4292202 -1.8281395
-0.20645431 1.5944945 1.6360488
-0.42676249 4.6694093 1.0069989
-0.32883954 3.3026638 0.46426255
0.99785864 3.8647332 0.099257469
-0.45641035 5.0832157 -0.054341435
0.85788554 5.0718904 -0.40974957
0.85940635 5.0587745 -0.93960756
1.0563338 3.3604321 -1.5880766
-0.3274667 1.5800365 1.6362338
-0.53582519 4.6457596 1.0072089
-0.3810721 2.3687708 0.45992187
0.88341421 3.8637519 0.099455357
0.73649657 5.1727133 -0.40585059
0.74288005 5.1158395 -0.93597573
1.0023549 2.8040514 -1.6261694
-0.45034879 1.5939509 1.6355553
-0.64669985 4.6484499 1.0070777
-0.5587979 3.2810204 0.4642345
0.77008945 3.8532553 0.099488378
-0.66253912 4.8948507 -0.058240473
0.62797064 5.1627445 -0.40578216
0.63026673 5.1415887 -0.93400425
0.94176209 2.2714558 -1.6625943
-0.55442071 1.5874242 1.6355553
-0.73995459 4.6225643 1.0073402
-0.65708107 3.2668428 0.46419707
0.53531432 5.1508265 -0.40585059
0.53314954 5.1713753 -0.93192893
0.84043849 2.2546024 -1.6630113
-0.67632151 1.5882053 1.6353087
-0.84992748 4.6100345 1.0074189
-0.77351463 3.2799745 0.46429062
0.56498092 3.781431 0.098663747
0.42409527 5.167448 -0.40489298
0.42099768 5.1979203 -0.92995733
0.45207644 4.8921719 -1.4774122
-0.96136308 4.6238651 1.0071564
-0.89336991 3.3594401 0.46469289
0.41823894 4.1104388 0.10430419
-0.91106081 3.6884251 -0.084906161
0.31362456 5.1785183 -0.40414053
0.31083488 5.2069988 -0.92891973
0.34410113 4.8673615 -1.4783854
-1.0542961 4.5869741 1.0075765
1.4834507 5.5454044 0.64808291
-1.0038252 3.5899925 0.46579677
0.29037029 4.435627 0.1098457
-1.0087526 3.6873302 -0.084816515
0.22156441 5.1616154 -0.40441412
0.21792156 5.2000508 -0.9288159
0.73166132 -0.22054788 -1.8338735
-1.163241 4.5496249 1.0079963
1.3738146 5.550528 0.64805812
-1.1695123 4.6832032 0.47094196
0.1799053 4.4193382 0.10974675
-1.1752899 4.8062606 -0.059584975
0.11085963 5.1774259 -0.40352494
0.10754073 5.2138658 -0.92757076
0.13107723 4.9554472 -1.4708781
-1.1819953 2.4228058 1.0358728
1.2752485 5.4727812 0.64813745
-1.3168738 5.5394225 0.47497398
0.050907135 4.6146159 0.11314425
-1.1938101 2.6958139 -0.10682136
0.0036149025 5.1558151 -0.40393525
0.00060278177 5.1902852 -0.9282971
0.023711562 4.9258342 -1.4722683
-1.1311003 -1.3780429 1.0857459
1.2884693 4.643549 0.64915854
-1.4078249 5.5176139 0.47488976
-0.028909266 4.4311457 0.11024153
-1.1592404 -0.67682254 -0.18238163
-0.089772701 5.153821 -0.40373009
1.2466593 4.9686198 -0.76933128
-0.094017148 5.2042189 -0.92715567
-0.066713929 4.8800282 -1.4749098
1.1817554 4.6012335 1.1874552
1.1911047 4.5263748 0.6492874
0.22749154 -0.140605 0.034738362
-1.1579156 -4.2765007 -0.26300615
-0.19702375 5.1309471 -0.40420896
1.1306647 5.0103045 -0.76675576
-0.20204604 5.193315 -0.9272595
1.1253141 5.0489335 -1.2946689
-0.17352957 4.8392005 -1.4771342
1.0655744 4.6352921 1.1865447
1.1682367 3.7880599 0.65019202
0.24771148 -2.0767188 0.0028746128
-0.3044087 5.1084614 -0.4046877
1.0188725 5.0207052 -0.765652
-0.3107338 5.1907735 -0.92694813
1.0124664 5.0692377 -1.2925057
-0.28198618 4.8166571 -1.4781075
0.9682377 4.6478195 1.1860894
1.2177523 2.533062 0.65174347
-0.29521409 3.714066 0.098795652
-0.3996436 5.1313624 -0.40366167
0.93281573 4.9480391 -0.76850349
-0.40262622 5.1718407 -0.92757076
0.91486233 5.0957603 -1.2900879
-0.37666723 4.8195338 -1.4774122
0.85550451 4.6568723 1.185672
1.1215624 2.3286009 0.65198141
-0.39713454 3.5383346 0.09602493
-0.50628334 5.0976491 -0.40455097
0.80349284 5.1120281 -0.76031715
-0.5093981 5.1421437 -0.92871219
0.8021903 5.1188469 -1.2877972
-0.48723996 4.825593 -1.4764392
0.74156713 4.6782713 1.185027
0.94678026 2.8221662 0.65134943
-0.5422588 3.99546 0.10371047
-0.61671233 5.1181717 -0.40359324
0.68815356 5.1613851 -0.75746566
-0.61582947 5.1048594 -0.9302687
0.68841869 5.154263 -1.2847433
-0.60249126 4.9037285 -1.4704611
0.64290911 4.7077503 1.1842682
0.85937226 2.6919303 0.65149808
-0.63941598 3.9991901 0.1038754
-0.70782185 5.0822277 -0.40461928
0.59528333 5.1512661 -0.75746566
-0.70584917 5.0509958 -0.93275899
0.5955261 5.1441422 -1.2847433
-0.70094359 4.9733295 -1.465178
0.53103936 4.7140408 1.1839268
1.248511 -2.206269 0.65758497
-0.75023741 3.9623425 0.10338062
-0.81716621 5.0875373 -0.40420896
0.48298073 5.1775856 -0.75571805
-0.81412178 5.0363536 -0.93317407
0.48073244 5.1942482 -1.2807984
-0.80950135 4.9586782 -1.4657342
0.41866207 4.7267179 1.1834714
1.2229741 -3.3185723 0.65895301
-0.86665082 4.0217328 0.10446912
-0.92355102 5.0413628 -0.405577
0.37369627 5.1764975 -0.75525814
-0.91791356 4.9403419 -0.9378435
0.37289971 5.1792564 -1.2810528
-0.91825235 4.9464126 -1.4661512
0.32384974 4.7234173 1.1833576
0.44731331 3.4479795 0.65051419
-0.94563913 3.6850061 0.098993599
-1.0170004 5.0402989 -0.40544015
0.27837265 5.1932178 -0.75406235
-1.0156711 5.0150504 -0.93369287
0.276434 5.2078733 -1.278635
-1.0112652 4.9313779 -1.4668465
0.21148568 4.7388592 1.1828644
1.4460796 5.4056869 0.82124388
1.1317731 -5.1457815 0.66119593
1.4277241 5.5393381 0.30006382
-1.1203085 4.9229698 -0.40927082
0.16865879 5.1988549 -0.75332648
-1.1235706 4.9895692 -0.93473059
0.16973549 5.1817055 -1.2796531
-1.1203508 4.9238377 -1.4669855
0.10212266 4.7228575 1.1829782
1.3243161 5.4981761 0.82047862
0.98902446 -5.1969633 0.66124302
1.3207529 5.5248456 0.30006382
-1.2250235 4.8185325 0.11789411
-1.2099812 4.486517 -0.42404598
0.060981631 5.1830111 -0.75360245
-1.1716119 3.6396255 -1.0046685
0.060040116 5.1877308 -1.278635
-0.9550494 -1.1403874 -1.8896227
-0.032619953 6.2243214 -1.7207434
0.0053006411 4.7444634 1.182409
1.2438805 5.3987956 0.8211022
-0.0012817383 4.8207884 0.64876944
-1.2332146 2.7805068 0.084315121
1.325434 4.7734385 -0.24299687
-1.1822935 1.5726516 -0.52370995
-0.033533931 5.1947646 -0.75268263
-1.1397802 0.56422853 -1.1643639
-0.03274405 5.1795835 -1.278635
-1.0639272 -1.2350177 -1.895879
-0.11564022 6.1409926 -1.7269192
-0.10342288 4.72124 1.1826746
1.2444781 4.5318193 0.82719612
0.71692371 -5.2163434 0.66123807
1.2094228 4.8085308 0.29270259
-1.207541 -0.93296021 0.023094594
1.1792233 5.0469131 -0.23479337
-1.1690289 -1.9336029 -0.64362139
-0.14274466 5.1975784 -0.75213081
-1.1187153 -3.2408779 -1.3619335
-0.14118844 5.1724367 -1.2785079
-1.1936394 -1.2941611 -1.8996327
-0.21285367 6.0407681 -1.734395
-0.21322519 4.7103729 1.1827126
1.11795 4.6470308 0.82627493
-0.21028537 4.6730928 0.64893055
1.2020414 3.9631546 0.28383949
-1.1993297 -4.9267926 -0.042743921
1.0714248 5.0253987 -0.23501962
-0.25048661 5.1828685 -0.75240666
-0.25137627 5.1875734 -1.2769809
-1.3231399 -1.3707817 -1.9046376
-0.31828952 6.0362616 -1.7340701
1.0673838 4.2688584 1.3723054
-0.30811173 4.7110629 1.1825609
1.0646088 4.2920265 0.82872671
-0.29728764 4.5680785 0.64905196
1.1125394 3.8918552 0.28320488
0.97027969 5.0795798 -0.23315263
-0.34177682 5.1557775 -0.75332648
-0.34461161 5.186377 -1.2765989
-1.4393003 -1.2868093 -1.8985205
-0.41352099 6.0968795 -1.7285445
0.94653857 4.3351374 1.3703215
-0.41767624 4.6969552 1.1826746
0.91225851 4.6305056 0.82621825
-0.40852526 4.5698886 0.64903957
1.0034512 3.8447583 0.28284529
0.86231804 5.0608091 -0.23332238
-0.4525815 5.1816492 -0.75176281
-0.45243463 5.1724114 -1.2769809
-1.5680321 -1.4064202 -1.9065838
-0.50855935 5.9519448 -1.7397583
0.83404088 4.3323512 1.3700736
-0.52867693 4.703198 1.182409
1.0580634 2.3383069 0.84247351
-0.51685607 4.5302081 0.6490792
0.88826239 3.84972 0.28303567
0.746454 5.111969 -0.23151195
-0.56030619 5.1660781 -0.75213081
-0.55951387 5.1468911 -1.278126
-0.61060864 5.8948278 -1.7438214
0.73140532 4.3873668 1.3684368
-0.62141955 4.6729565 1.1828644
0.70607924 4.6193628 0.82613325
-0.6113131 4.5178909 0.64908665
0.79908377 3.7674055 0.28227416
0.64626902 5.1672482 -0.22964495
-0.65276587 5.1538987 -0.75240666
-0.65307212 5.1506486 -1.2774899
-0.70207548 5.9027076 -1.7426836
0.61749047 4.4012842 1.3677921
-0.7310617 4.6579976 1.1830161
0.59511161 4.6134906 0.82609069
-0.72680205 4.5887322 0.64898998
0.71163011 3.5086119 0.27965119
0.53605187 5.1735182 -0.22913575
-0.76064551 5.13906 -0.75277466
-0.76035196 5.1258578 -1.278635
-0.80085081 5.7846012 -1.7517848
0.50291258 4.4235845 1.366949
-0.8402102 4.6334591 1.1833576
0.48313278 4.6179733 0.82597733
-0.83782005 4.5921259 0.64897764
0.56806785 3.7832627 0.28269723
0.42653167 5.1742301 -0.2287963
-0.86803132 5.1146412 -0.75360245
-0.86824811 5.1094246 -1.2792714
-0.91058922 5.8419585 -1.7465842
0.38932168 4.4383583 1.3663042
-0.94983786 4.6153049 1.1835853
0.37220538 4.6129217 0.82593483
-0.88121045 3.3477585 0.65051419
0.45349479 3.7838769 0.28282413
0.31705832 5.1753478 -0.22845685
-0.96887493 4.9669232 -0.76013309
-0.97624028 5.0933857 -1.2799077
-1.0144963 5.8002062 -1.7495096
0.29304844 4.4411225 1.3660066
-1.0428879 4.5803776 1.1841544
0.27553582 4.6256976 0.82577896
-0.99657601 3.6721492 0.65010524
0.44583866 2.8307903 0.27279761
0.22291207 5.1803255 -0.22806078
-1.0632635 4.9799681 -0.7593053
-1.0667757 5.0386615 -1.2830889
-1.1026112 5.7416792 -1.7538977
0.18060696 4.4467268 1.3656099
-1.1396532 4.2853241 1.1896558
0.16576838 4.6094594 0.82582146
-1.1942219 5.4385729 0.64790696
0.33403155 2.7641501 0.27220532
0.11336213 5.1841888 -0.22766477
-1.1728349 4.9865837 -0.75875348
-1.1749052 5.0193596 -1.2839797
-1.2070345 5.6986289 -1.7569854
0.069116712 4.4427891 1.3654611
-1.1405588 1.7451204 1.2378032
0.055223227 4.6015906 0.82580727
-1.305469 5.5236053 0.64779544
0.079718888 4.3216085 0.28885275
0.0068403482 5.1546021 -0.22823054
-1.2711868 4.7381177 -0.76997513
-1.1993799 3.0801804 -1.4074154
-1.3107977 5.634048 -1.7618611
-0.028527617 4.4645004 1.364717
-0.042427659 4.6293354 0.82555217
-1.3959773 5.4897699 0.64783263
0.3162688 0.37559956 0.24705443
-0.084703743 5.1306844 -0.22868311
-1.2539754 1.9833252 -0.89672536
-1.0965515 -1.9197567 -1.7261846
-1.4043498 5.6839824 -1.757473
-0.13717896 4.4274526 1.3654115
-0.15272415 4.6202369 0.82555217
0.24213696 -0.2766645 0.24024317
-0.19284123 5.117753 -0.2287963
-1.1961771 -2.8489244 -1.1191361
-1.0999374 -5.4813132 -1.9530771
-1.509892 5.6559653 -1.7594233
-0.24898216 4.4286728 1.3651634
-0.26320681 4.6135373 0.82553804
0.34492463 -3.2897248 0.20838675
-0.30226696 5.1211629 -0.22845685
-1.2508543 -5.3787432 -1.9462054
-0.34326661 4.4095354 1.3654611
-0.3576462 4.6044145 0.82555217
-0.28722197 3.6499941 0.28208378
-0.39408204 5.0982056 -0.22890943
-1.3774858 -5.3607759 -1.9448056
-0.45310855 4.3835912 1.3659074
-0.46831208 4.6004639 0.82552385
-0.38823998 3.4582617 0.28013772
-0.5012598 5.0704513 -0.2294752
-1.5198722 -5.5365033 -1.9557495
-0.56390578 4.3700166 1.3660562
-0.57937443 4.6029053 0.82545298
-0.52085239 3.721827 0.28301451
-0.61271906 5.1049232 -0.2282871
-0.65811968 4.3458753 1.3665025
-0.6742453 4.6007609 0.82542467
-0.63806397 4.0288672 0.28633553
-0.70411921 5.0729523 -0.22902256
-0.7675485 4.3071027 1.3672961
-0.78535634 4.605958 0.82533962
-0.74817824 3.9820299 0.28591248
-0.81159633 5.0463195 -0.22958833
-0.87768215 4.276711 1.3678913
-0.89729673 4.6275396 0.82514119
-0.8473345 3.7339149 0.28335297
-0.92169869 5.0639915 -0.22890943
-0.97058487 4.2196012 1.3691808
-0.49123025 -4.8661613 0.89247215
-0.93361831 3.5189297 0.28113189
-1.0114963 4.9950438 -0.23071986
-1.0796328 4.1579943 1.3705695
-1.0883272 4.3351316 0.82713944
-1.0551361 3.6589222 0.28267607
-1.2115803 4.5915937 0.82528293
-1.2524481 5.4915452 0.30213684
-1.2170815 4.7127361 -0.23841423
-1.3577042 5.4420161 0.81921732
-1.3609943 5.5208468 0.30249643
-1.2054261 1.7936493 -0.32095861
-1.4483712 5.4043479 0.81945825
-1.451414 5.4831891 0.30213684
-1.1593013 -2.086066 -0.4307161
1.5869346 3.8242712 -1.7427385
1.4685109 3.9734697 -1.7303879
1.2377732 4.8771868 -0.59565383
1.2332015 4.9129238 -1.1267469
1.3368176 4.107203 -1.7190914
1.1143363 4.9764361 -0.59108287
1.1163064 4.9605732 -1.1231661
1.241807 3.9545178 -1.7296348
1.0012401 4.9968252 -0.58971959
1.0010064 4.9987679 -1.1201627
1.1335618 3.9030967 -1.7324965
0.9031952 5.0254183 -0.58811563
0.90273881 5.0293102 -1.1177371
1.0434749 3.8341427 -1.7368643
0.79208857 5.0327077 -0.58731371
0.79074705 5.0445199 -1.1161199
0.9352088 3.7774756 -1.7401781
0.68108213 5.0404143 -0.58651179
0.67673284 5.0799994 -1.1133475
0.81829774 3.7965198 -1.7377682
0.58719575 5.0362792 -0.58627123
0.5842424 5.0639601 -1.1136942
0.73150831 3.6888266 -1.7451484
0.47715825 5.036797 -0.5857901
0.47205693 5.0863285 -1.1117303
0.61346799 3.7185597 -1.7419856
0.3653897 5.0556231 -0.58458716
0.36205107 5.0892501 -1.1109219
0.50101101 3.6951575 -1.7428892
0.27295369 5.0385594 -0.58490795
0.26742756 5.096055 -1.1099977
0.41479486 3.5685086 -1.7517757
1.4238027 5.4466219 0.47339296
0.16194797 5.0521822 -0.58394557
0.15681815 5.1076889 -1.108727
0.29583442 3.6093736 -1.7478597
1.3104253 5.4777436 0.47360814
0.053199589 5.0423336 -0.58394557
0.05039072 5.0739927 -1.1101131
0.18726182 3.5374615 -1.7525289
1.2795455 4.9958687 1.0049777
1.2262715 5.4061661 0.47332749
-0.042767167 5.0660677 -0.58266252
-0.045644283 5.0996962 -1.1081495
0.092863023 3.487195 -1.7556918
1.2118715 4.6545463 1.0093088
1.2236681 4.5610094 0.46940777
1.2024893 4.7289386 -0.065904081
-0.15097404 5.050993 -0.58290309
-0.15503156 5.1005569 -1.1075721
-0.01055339 3.342448 -1.7659338
1.1169653 4.5157952 1.0109625
1.1964532 3.8663616 0.46619904
1.2011337 3.8281217 -0.085936964
-0.26034772 5.0502605 -0.58258229
-0.26313347 5.085897 -1.1079185
-0.13567245 3.4624796 -1.7561436
1.0470173 4.1588888 1.0155036
1.1109287 3.6203604 0.46510452
1.0951967 3.7529204 -0.087326229
-0.36924848 5.0439501 -0.58250207
-0.3719036 5.079597 -1.1078031
-0.23957637 3.3105376 -1.7669883
0.92988735 4.3304172 1.0130887
1.1563969 2.369174 0.45926702
0.99514693 3.7653632 -0.086788476
-0.46248239 5.0371542 -0.58250207
-0.46530986 5.0767913 -1.1075721
-0.33428228 3.2476408 -1.7712054
0.79449564 4.532402 1.0102538
1.0131468 2.5763216 0.46030542
0.86657232 3.8875937 -0.08374095
-0.5710119 5.0256062 -0.58266252
-0.57288557 5.0533042 -1.108496
-0.45260346 3.2833979 -1.7678919
